22.115681 4.086486 18.755260 0.157517 -0.949838 0.270179 
20.411819 3.423104 17.266100 0.138032 -0.948767 0.284232 
18.649490 2.663781 15.693430 0.147770 -0.942606 0.299428 
16.885889 1.863687 14.096240 0.160725 -0.941846 0.295116 
15.130840 1.053619 12.468530 0.163025 -0.944524 0.285126 
13.385170 0.261685 10.788440 0.151407 -0.946627 0.284559 
36.275429 9.941393 25.492611 0.296592 -0.894929 0.333371 
34.635220 9.138120 24.782101 0.280457 -0.899112 0.336067 
33.005520 8.346728 23.956940 0.270458 -0.900456 0.340633 
31.394239 7.507116 23.045219 0.268866 -0.896841 0.351266 
29.827040 6.652169 22.056240 0.243414 -0.906261 0.345602 
28.279819 5.884956 20.978889 0.185768 -0.925371 0.330421 
26.650030 5.185550 19.744869 0.162339 -0.940375 0.298900 
24.996941 4.502392 18.424061 0.159519 -0.945165 0.284985 
23.327240 3.800189 17.014441 0.167385 -0.947363 0.272919 
21.642920 3.074029 15.519110 0.164112 -0.946318 0.278479 
19.934469 2.311588 13.947990 0.163902 -0.945614 0.280983 
18.206070 1.532104 12.333380 0.167011 -0.946604 0.275768 
16.504740 0.755358 10.685760 0.162217 -0.948377 0.272519 
14.737440 -0.025662 8.983149 0.173730 -0.944500 0.278815 
37.068180 9.715896 24.082880 0.307064 -0.897086 0.317725 
35.480019 8.914879 23.365271 0.307452 -0.897070 0.317393 
33.904968 8.083485 22.527370 0.298313 -0.899713 0.318632 
32.345428 7.249094 21.592779 0.286621 -0.903346 0.319084 
30.809549 6.402192 20.547251 0.272566 -0.912034 0.306433 
29.298800 5.612899 19.429211 0.236762 -0.928470 0.286158 
27.739189 4.879099 18.147141 0.191511 -0.941316 0.277934 
26.140650 4.183069 16.766750 0.163171 -0.949009 0.269735 
24.515249 3.519446 15.320150 0.163424 -0.953282 0.254060 
22.849960 2.825361 13.793380 0.176363 -0.950872 0.254437 
21.162781 2.065066 12.206040 0.184602 -0.948506 0.257408 
19.477171 1.295479 10.572570 0.193307 -0.947131 0.256075 
17.782471 0.482946 8.901813 0.189038 -0.947298 0.258635 
16.062000 -0.311269 7.183828 0.182122 -0.944348 0.273932 
37.834518 9.490500 22.708941 0.316394 -0.899853 0.300264 
36.294819 8.708102 21.959141 0.311407 -0.905334 0.288785 
34.751781 7.911671 21.089170 0.318333 -0.904978 0.282274 
33.250332 7.059087 20.104750 0.315993 -0.903846 0.288463 
31.789640 6.224609 19.042650 0.289516 -0.915043 0.280852 
30.306459 5.434723 17.850281 0.257564 -0.929028 0.265646 
28.791109 4.677846 16.545530 0.228697 -0.939820 0.253841 
27.255020 3.961899 15.145160 0.195468 -0.950972 0.239676 
25.689690 3.310181 13.653270 0.174907 -0.954669 0.240863 
24.071650 2.605974 12.088310 0.181176 -0.951120 0.250090 
22.418921 1.854050 10.482130 0.192275 -0.950833 0.242789 
20.729200 1.095926 8.819501 0.199993 -0.949535 0.241633 
19.047131 0.291431 7.130419 0.214084 -0.945229 0.246393 
17.336300 -0.559704 5.409499 0.214319 -0.941503 0.260076 
38.500191 9.318986 21.364010 0.356858 -0.899730 0.251275 
37.038879 8.560221 20.565670 0.328730 -0.908753 0.257108 
35.587341 7.777637 19.651730 0.326382 -0.904974 0.272941 
34.149899 6.939349 18.647141 0.336484 -0.902418 0.269112 
32.744061 6.090041 17.538521 0.321478 -0.910934 0.258556 
31.333481 5.285246 16.315250 0.277417 -0.927683 0.249888 
29.888390 4.542838 14.971500 0.234049 -0.941038 0.244271 
28.414700 3.839262 13.552650 0.219725 -0.947475 0.232403 
26.891211 3.128989 12.041950 0.201420 -0.950930 0.234866 
25.308109 2.417380 10.453640 0.192422 -0.954283 0.228732 
23.684080 1.708188 8.811227 0.200285 -0.954284 0.221873 
22.022610 0.950745 7.111870 0.208170 -0.950464 0.230830 
20.340839 0.142906 5.380825 0.217708 -0.946312 0.238948 
18.616171 -0.708949 3.640243 0.227833 -0.942445 0.244725 
39.110031 9.242741 20.012671 0.389182 -0.893291 0.224876 
37.756149 8.462902 19.217569 0.370785 -0.897204 0.239881 
36.405861 7.661089 18.268221 0.346577 -0.903717 0.251357 
35.067268 6.878354 17.228870 0.335989 -0.908019 0.250224 
33.706280 6.055955 16.074369 0.337462 -0.909612 0.242335 
32.348999 5.226965 14.813010 0.320705 -0.916258 0.240041 
31.012110 4.433210 13.469410 0.265736 -0.934711 0.236008 
29.597151 3.734580 12.008670 0.218626 -0.948596 0.228843 
28.119350 3.041816 10.479350 0.212858 -0.952511 0.217749 
26.568569 2.338055 8.865129 0.209496 -0.954765 0.211035 
24.975470 1.621572 7.177450 0.211556 -0.953273 0.215674 
23.330641 0.842631 5.430728 0.216160 -0.948999 0.229513 
21.656040 0.018847 3.673131 0.222445 -0.945541 0.237637 
19.944820 -0.833465 1.924142 0.236598 -0.946893 0.217751 
39.734600 9.180810 18.698730 0.389007 -0.893085 0.225992 
38.455200 8.429622 17.888439 0.385988 -0.894444 0.225794 
37.219452 7.653284 16.942970 0.381287 -0.894776 0.232372 
35.975101 6.845758 15.850230 0.358685 -0.902221 0.239464 
34.704201 6.046361 14.654540 0.337049 -0.910108 0.241044 
33.402069 5.240188 13.389730 0.342447 -0.912640 0.223198 
32.092152 4.427983 12.029240 0.331961 -0.920681 0.205301 
30.764351 3.660590 10.551710 0.266508 -0.941277 0.207295 
29.354851 2.974381 8.956904 0.210836 -0.953457 0.215564 
27.868549 2.282202 7.305667 0.210818 -0.954787 0.209615 
26.277060 1.550294 5.572925 0.218239 -0.951674 0.216076 
24.646379 0.751652 3.813212 0.222600 -0.947782 0.228381 
22.984390 -0.066770 2.060471 0.240272 -0.951199 0.193624 
21.213909 -0.843346 0.228566 0.253627 -0.952402 0.169130 
40.352131 9.140460 17.472561 0.386189 -0.909244 0.155352 
39.209999 8.441606 16.654360 0.386135 -0.893696 0.228489 
38.060211 7.692522 15.681050 0.395470 -0.891367 0.221516 
36.909321 6.913051 14.591920 0.401113 -0.890602 0.214330 
35.717449 6.086638 13.360200 0.375947 -0.905200 0.198183 
34.510090 5.368249 12.077240 0.344496 -0.919915 0.187293 
33.205891 4.590892 10.651560 0.359811 -0.914967 0.182677 
31.888109 3.751161 9.132747 0.351886 -0.915706 0.194059 
30.568359 2.925694 7.545046 0.283647 -0.939140 0.193804 
29.137730 2.240925 5.830991 0.230919 -0.954433 0.189034 
27.592270 1.512762 4.051335 0.217793 -0.951581 0.216935 
25.994249 0.716331 2.294855 0.231549 -0.955717 0.181632 
24.291180 0.030978 0.463616 0.251980 -0.957420 0.140899 
22.541149 -0.741116 -1.436819 0.266396 -0.951713 0.152561 
40.948898 9.154255 16.447470 0.410986 -0.903597 0.120846 
40.014511 8.524565 15.602870 0.406081 -0.892468 0.196465 
38.998402 7.861805 14.597630 0.405060 -0.896154 0.181206 
37.881699 7.121937 13.431020 0.414790 -0.893522 0.171953 
36.765282 6.359298 12.174360 0.424742 -0.889328 0.169380 
35.649860 5.561945 10.824780 0.388764 -0.904533 0.175165 
34.444752 4.817472 9.366566 0.355079 -0.916809 0.182702 
33.142860 3.989827 7.815877 0.363418 -0.914122 0.179743 
31.801100 3.147054 6.208334 0.357968 -0.919739 0.161058 
30.395790 2.338476 4.482144 0.324455 -0.930281 0.171191 
28.957211 1.526523 2.745648 0.274074 -0.948242 0.160378 
27.401119 0.868562 0.905283 0.247634 -0.960716 0.125309 
25.735661 0.201896 -1.012536 0.251317 -0.958166 0.136960 
23.987890 -0.580616 -2.977599 0.265884 -0.955629 0.126802 
-54.290192 39.294701 53.376652 -0.178190 -0.838424 0.515067 
-54.551701 38.213509 51.553860 -0.185588 -0.831256 0.523995 
-54.806980 37.125019 49.750401 -0.194034 -0.830293 0.522461 
-55.052170 36.063499 47.949692 -0.189048 -0.840419 0.507894 
-55.270432 35.036041 46.122269 -0.188453 -0.846360 0.498157 
-55.452831 33.989559 44.276428 -0.196479 -0.841184 0.503791 
-55.596661 32.902710 42.432571 -0.218277 -0.830670 0.512193 
-55.708969 31.802811 40.620232 -0.220786 -0.827656 0.515984 
-55.771511 30.700270 38.825329 -0.220386 -0.825336 0.519857 
-55.786091 29.575491 37.054138 -0.240360 -0.808990 0.536435 
-55.783352 28.403561 35.357021 -0.243742 -0.792104 0.559608 
-55.762589 27.237329 33.752190 -0.255061 -0.787145 0.561557 
-55.702351 26.097830 32.162682 -0.270404 -0.779127 0.565546 
-55.635429 24.921379 30.630100 -0.291968 -0.755709 0.586224 
-55.545101 23.726540 29.186300 -0.304211 -0.737402 0.603070 
-52.275501 38.712528 53.134731 -0.182290 -0.820103 0.542404 
-52.551331 37.636822 51.355061 -0.181766 -0.827899 0.530608 
-52.824089 36.567039 49.596588 -0.187070 -0.833727 0.519523 
-53.074139 35.548790 47.816299 -0.190292 -0.841182 0.506164 
-53.304420 34.515282 46.008709 -0.199188 -0.839621 0.505333 
-53.516930 33.473129 44.194340 -0.207606 -0.832641 0.513428 
-53.707130 32.389858 42.398251 -0.214623 -0.825930 0.521322 
-53.855530 31.314329 40.632912 -0.219978 -0.826391 0.518351 
-53.953209 30.237579 38.864971 -0.233244 -0.814954 0.530516 
-54.033340 29.104700 37.161362 -0.246715 -0.801204 0.545164 
-54.099232 27.994560 35.502300 -0.245006 -0.793876 0.556536 
-54.156509 26.874260 33.927891 -0.249009 -0.783318 0.569567 
-54.183140 25.758421 32.390301 -0.262322 -0.763238 0.590470 
-54.183720 24.580009 30.951941 -0.299493 -0.738051 0.604636 
-54.164070 23.457180 29.589550 -0.320279 -0.732928 0.600198 
-50.003208 39.166260 54.641571 -0.154202 -0.794625 0.587191 
-50.264870 38.120590 52.893929 -0.154202 -0.794625 0.587191 
-50.554161 37.069538 51.138180 -0.179707 -0.829295 0.529128 
-50.847130 36.017319 49.398491 -0.178154 -0.832525 0.524560 
-51.117241 34.976742 47.624069 -0.187769 -0.836150 0.515361 
-51.366852 33.944221 45.847050 -0.204554 -0.833111 0.513891 
-51.606369 32.897110 44.059711 -0.219965 -0.826164 0.518719 
-51.833649 31.842260 42.301929 -0.221386 -0.822748 0.523521 
-52.029060 30.782459 40.557018 -0.221358 -0.817290 0.532012 
-52.193260 29.691059 38.847019 -0.237625 -0.806006 0.542115 
-52.326981 28.600100 37.182968 -0.243959 -0.800144 0.547954 
-52.443432 27.519211 35.567230 -0.260427 -0.784910 0.562222 
-52.573219 26.428249 34.038288 -0.262960 -0.774345 0.575536 
-52.680740 25.346149 32.536240 -0.272959 -0.751723 0.600338 
-52.809780 24.185921 31.125971 -0.284652 -0.726101 0.625900 
-52.896172 23.110180 29.838820 -0.305897 -0.728242 0.613262 
-48.019260 38.550510 54.353420 -0.160316 -0.802341 0.574933 
-48.276112 37.507629 52.619129 -0.145580 -0.791482 0.593601 
-48.562901 36.472900 50.886009 -0.184817 -0.829803 0.526564 
-48.872181 35.422779 49.125420 -0.183206 -0.832278 0.523211 
-49.166248 34.392029 47.365318 -0.191047 -0.828551 0.526311 
-49.460388 33.324211 45.607330 -0.203487 -0.821057 0.533347 
-49.740261 32.269402 43.875671 -0.218870 -0.819548 0.529564 
-49.999889 31.230659 42.144161 -0.227100 -0.820367 0.524808 
-50.241009 30.192070 40.415051 -0.228667 -0.813995 0.533969 
-50.455540 29.110439 38.720951 -0.242023 -0.798758 0.550828 
-50.647919 28.026150 37.095280 -0.256046 -0.783775 0.565807 
-50.849529 26.947020 35.542759 -0.266097 -0.774699 0.573615 
-51.040379 25.894350 34.033749 -0.265889 -0.769210 0.581050 
-51.251060 24.813820 32.539730 -0.285698 -0.740547 0.608249 
-51.490421 23.712400 31.170759 -0.281144 -0.722290 0.631867 
-51.687660 22.736971 29.966820 -0.284969 -0.723809 0.628405 
-46.043789 37.956570 53.977249 -0.168594 -0.768350 0.617425 
-46.304852 36.870991 52.293041 -0.136357 -0.785681 0.603417 
-46.597672 35.825600 50.565529 -0.187982 -0.827398 0.529222 
-46.915169 34.791519 48.827271 -0.188953 -0.826528 0.530234 
-47.253551 33.735371 47.073299 -0.193344 -0.822109 0.535496 
-47.596851 32.679989 45.338428 -0.194138 -0.820525 0.537633 
-47.926189 31.625521 43.609970 -0.199300 -0.820601 0.535625 
-48.225620 30.585051 41.895931 -0.211618 -0.819721 0.532236 
-48.496811 29.535089 40.169109 -0.235411 -0.801605 0.549555 
-48.771770 28.427000 38.517590 -0.248720 -0.782284 0.571113 
-49.043919 27.350309 36.935719 -0.259319 -0.779132 0.570708 
-49.317928 26.315920 35.389069 -0.257318 -0.778136 0.572968 
-49.590721 25.283051 33.888340 -0.259461 -0.759793 0.596150 
-49.914391 24.173790 32.401680 -0.277373 -0.733078 0.621016 
-50.242859 23.162760 31.097570 -0.270699 -0.727041 0.630978 
-50.557301 22.275591 29.941210 -0.268559 -0.728963 0.629674 
-44.051208 37.314110 53.611790 -0.161863 -0.818328 0.551488 
-44.341610 36.224331 51.912621 -0.162299 -0.819576 0.549503 
-44.657440 35.153801 50.208469 -0.180219 -0.823256 0.538303 
-44.995239 34.122360 48.479542 -0.189182 -0.826729 0.529838 
-45.362968 33.082371 46.726871 -0.187841 -0.825261 0.532598 
-45.741051 32.029449 44.975170 -0.193026 -0.820479 0.538104 
-46.112320 30.976339 43.246960 -0.194401 -0.817582 0.542003 
-46.465302 29.911070 41.519920 -0.204219 -0.804451 0.557811 
-46.816212 28.795990 39.842850 -0.227675 -0.785890 0.574927 
-47.162392 27.699169 38.218079 -0.238009 -0.782419 0.575475 
-47.504921 26.653030 36.644619 -0.240852 -0.783454 0.572878 
-47.842239 25.619289 35.091000 -0.247478 -0.774385 0.582308 
-48.191891 24.572590 33.591518 -0.262983 -0.747521 0.609961 
-48.607979 23.497440 32.161152 -0.261244 -0.732306 0.628871 
-49.054150 22.519661 30.841690 -0.280262 -0.697486 0.659520 
-49.487930 21.667000 29.673889 -0.293814 -0.672143 0.679630 
-42.072090 36.658569 53.215591 -0.160244 -0.818069 0.552344 
-42.386372 35.560169 51.496941 -0.159991 -0.817771 0.552859 
-42.723900 34.479290 49.802021 -0.167850 -0.821562 0.544850 
-43.085232 33.432331 48.072819 -0.183552 -0.824960 0.534556 
-43.478222 32.376511 46.300781 -0.193095 -0.818186 0.541559 
-43.891472 31.296761 44.559391 -0.200813 -0.812752 0.546909 
-44.306480 30.234381 42.813389 -0.207997 -0.807129 0.552522 
-44.734959 29.141319 41.094898 -0.216925 -0.791911 0.570807 
-45.165401 28.029070 39.427071 -0.222426 -0.781866 0.582420 
-45.581211 26.940651 37.814850 -0.226962 -0.781747 0.580827 
-45.987228 25.883940 36.217941 -0.236577 -0.778634 0.581172 
-46.393608 24.821831 34.648548 -0.256492 -0.754162 0.604526 
-46.840759 23.739929 33.180939 -0.263445 -0.734707 0.625142 
-47.327862 22.719879 31.783171 -0.259550 -0.733616 0.628046 
-47.883888 21.747160 30.426001 -0.293718 -0.674616 0.677217 
-48.499950 20.834600 29.222919 -0.299883 -0.642854 0.704847 
-40.100060 35.979488 52.781071 -0.159143 -0.805819 0.570376 
-40.418980 34.884140 51.066711 -0.159743 -0.817726 0.552997 
-40.784161 33.780109 49.331879 -0.167592 -0.817507 0.550995 
-41.177109 32.693352 47.585819 -0.187620 -0.813718 0.550146 
-41.608150 31.604851 45.833309 -0.198836 -0.809498 0.552429 
-42.071770 30.516399 44.073711 -0.204208 -0.806236 0.555232 
-42.543030 29.426189 42.326721 -0.219131 -0.794947 0.565722 
-43.028721 28.311119 40.605770 -0.230107 -0.779659 0.582394 
-43.514332 27.184240 38.940929 -0.241724 -0.771581 0.588415 
-43.996979 26.098600 37.304249 -0.241642 -0.772872 0.586752 
-44.489498 25.011721 35.677689 -0.249168 -0.755289 0.606180 
-45.006828 23.895161 34.141460 -0.264183 -0.735545 0.623844 
-45.544621 22.825310 32.651031 -0.278348 -0.708313 0.648702 
-46.139019 21.804819 31.209730 -0.296436 -0.676785 0.673861 
-46.803150 20.782490 29.897070 -0.301153 -0.645411 0.701962 
-47.565899 19.879990 28.672600 -0.297500 -0.636820 0.711304 
-38.137741 35.277382 52.307240 -0.113468 -0.783013 0.611569 
-37.858791 36.394840 54.039589 -0.152671 -0.819239 0.552755 
-38.462570 34.155849 50.555328 -0.165316 -0.812551 0.558957 
-38.841438 33.017429 48.815861 -0.177189 -0.804067 0.567522 
-39.279018 31.887859 47.085270 -0.192753 -0.804288 0.562109 
-39.761501 30.791580 45.315189 -0.199749 -0.805476 0.557951 
-40.278622 29.677601 43.538551 -0.212520 -0.793956 0.569622 
-40.817219 28.536600 41.778629 -0.217705 -0.781173 0.585127 
-41.370010 27.376881 40.060631 -0.236024 -0.764941 0.599298 
-41.920639 26.237270 38.408119 -0.254406 -0.762168 0.595296 
-42.478539 25.153250 36.740711 -0.252427 -0.761652 0.596797 
-43.068562 24.028549 35.106689 -0.265363 -0.740041 0.617999 
-43.673981 22.916370 33.549938 -0.278033 -0.710602 0.646330 
-44.310909 21.839710 32.011520 -0.282354 -0.685073 0.671529 
-45.028011 20.727600 30.598230 -0.292853 -0.650347 0.700917 
-45.817402 19.728479 29.270370 -0.301342 -0.642448 0.704595 
-46.701279 18.841360 28.009821 -0.296619 -0.638652 0.710029 
-36.164139 34.568249 51.769798 -0.170839 -0.793465 0.584147 
-35.895439 35.702290 53.528271 -0.145837 -0.764423 0.628005 
-36.500992 33.380501 50.039581 -0.163199 -0.797873 0.580314 
-36.917049 32.199631 48.298851 -0.183336 -0.796777 0.575790 
-37.398918 31.057720 46.539242 -0.189637 -0.803155 0.564783 
-37.930988 29.925541 44.726768 -0.204682 -0.794117 0.572262 
-38.508572 28.752991 42.944778 -0.213838 -0.783916 0.582880 
-39.111641 27.595280 41.160381 -0.224728 -0.769000 0.598445 
-39.755550 26.402821 39.456741 -0.226517 -0.756126 0.613974 
-40.383240 25.251471 37.800541 -0.246275 -0.761491 0.599566 
-41.010239 24.156010 36.089920 -0.258983 -0.750551 0.607949 
-41.695938 22.998831 34.463001 -0.255682 -0.734180 0.628973 
-42.382999 21.867620 32.858898 -0.273070 -0.699704 0.660187 
-43.139809 20.732109 31.321690 -0.279623 -0.662276 0.695127 
-43.980659 19.628981 29.909620 -0.276087 -0.649146 0.708792 
-44.876518 18.620171 28.570930 -0.288823 -0.645595 0.706957 
-45.855862 17.723660 27.267229 -0.301339 -0.634543 0.711723 
-34.162182 33.818562 51.266891 -0.153680 -0.800128 0.579808 
-33.885849 35.009232 53.019112 -0.156223 -0.810911 0.563931 
-34.550850 32.579010 49.486912 -0.158170 -0.791641 0.590158 
-35.006630 31.354940 47.733421 -0.176037 -0.794145 0.581674 
-35.525951 30.176050 45.912369 -0.190218 -0.793862 0.577581 
-36.118629 28.973209 44.094769 -0.208642 -0.782573 0.586557 
-36.754280 27.780979 42.280651 -0.208593 -0.774281 0.597476 
-37.434120 26.570320 40.521519 -0.231436 -0.755867 0.612457 
-38.143631 25.376089 38.787708 -0.228361 -0.755130 0.614516 
-38.850239 24.202959 37.086071 -0.241226 -0.751132 0.614501 
-39.560108 23.052919 35.391640 -0.276475 -0.730739 0.624165 
-40.316551 21.889130 33.729839 -0.269381 -0.723412 0.635696 
-41.125160 20.743481 32.101181 -0.272008 -0.676739 0.684132 
-42.008129 19.562420 30.596090 -0.273347 -0.650915 0.708231 
-42.939041 18.471901 29.163260 -0.271664 -0.650012 0.709707 
-43.952438 17.461981 27.779131 -0.275213 -0.642557 0.715107 
-45.035519 16.518110 26.469271 -0.296855 -0.625138 0.721858 
-32.176659 33.018730 50.689289 -0.155297 -0.796906 0.583802 
-31.856171 34.264030 52.528751 -0.156840 -0.805068 0.572073 
-32.592941 31.743959 48.892872 -0.158090 -0.785952 0.597736 
-33.097599 30.465891 47.086750 -0.167850 -0.786998 0.593684 
-33.673489 29.217140 45.237240 -0.192356 -0.781860 0.593038 
-34.315479 27.979130 43.414108 -0.202824 -0.776537 0.596534 
-35.016319 26.758381 41.581779 -0.214499 -0.760063 0.613429 
-35.773010 25.485350 39.814320 -0.223559 -0.750210 0.622259 
-36.536110 24.281851 38.049358 -0.244518 -0.741899 0.624336 
-37.334572 23.066370 36.330231 -0.252888 -0.725505 0.640070 
-38.147289 21.856310 34.660191 -0.276666 -0.713675 0.643525 
-38.987122 20.693380 32.987129 -0.280204 -0.709573 0.646523 
-39.909512 19.525499 31.340931 -0.274017 -0.661841 0.697769 
-40.898170 18.349899 29.825239 -0.267752 -0.651910 0.709452 
-41.920818 17.262270 28.360470 -0.269427 -0.648369 0.712058 
-43.046268 16.239111 26.947540 -0.266234 -0.634151 0.725928 
-44.227558 15.272110 25.628120 -0.282078 -0.627302 0.725896 
-30.176319 32.167400 50.075279 -0.166717 -0.788142 0.592485 
-29.846991 33.456139 51.938911 -0.154428 -0.789513 0.593987 
-30.636040 30.834181 48.229012 -0.164491 -0.779712 0.604146 
-31.194830 29.520451 46.380260 -0.166481 -0.778890 0.604661 
-31.822599 28.221920 44.536098 -0.180563 -0.775981 0.604360 
-32.517769 26.940800 42.674030 -0.206184 -0.761968 0.613916 
-33.285999 25.641600 40.843288 -0.223271 -0.744868 0.628747 
-34.107422 24.354380 39.046001 -0.229304 -0.733484 0.639860 
-34.965321 23.081980 37.305859 -0.252487 -0.716980 0.649761 
-35.855122 21.833099 35.583229 -0.265069 -0.710286 0.652098 
-36.769150 20.624599 33.894829 -0.275233 -0.710461 0.647682 
-37.708118 19.459881 32.193150 -0.272318 -0.706848 0.652847 
-38.727440 18.278980 30.540140 -0.270549 -0.658264 0.702490 
-39.795929 17.102209 28.997540 -0.264128 -0.651671 0.711029 
-40.934490 16.020340 27.513451 -0.259036 -0.645967 0.718072 
-42.153252 14.974920 26.090540 -0.253155 -0.636345 0.728682 
-43.431061 14.019590 24.747299 -0.263624 -0.636838 0.724527 
-28.168619 31.237480 49.446590 -0.171291 -0.777716 0.604828 
-27.796270 32.633621 51.344101 -0.179923 -0.774181 0.606853 
-28.664890 29.873320 47.547470 -0.170721 -0.778307 0.604229 
-29.258610 28.536240 45.660160 -0.178431 -0.774302 0.607139 
-29.955481 27.183010 43.739441 -0.183024 -0.758252 0.625744 
-30.733629 25.795210 41.905811 -0.205807 -0.739188 0.641283 
-31.573950 24.455549 40.074150 -0.220485 -0.730774 0.646031 
-32.482632 23.123449 38.286671 -0.237529 -0.715009 0.657527 
-33.429790 21.819889 36.536770 -0.252875 -0.708791 0.658535 
-34.407360 20.571470 34.800251 -0.262831 -0.708142 0.655328 
-35.405312 19.355520 33.081139 -0.273065 -0.709976 0.649130 
-36.431068 18.187010 31.343170 -0.279227 -0.692895 0.664778 
-37.547199 16.971781 29.698400 -0.268586 -0.651623 0.709400 
-38.715961 15.822320 28.145990 -0.261329 -0.652860 0.710972 
-39.945869 14.742040 26.628321 -0.251569 -0.648476 0.718465 
-41.260231 13.708370 25.188419 -0.242466 -0.645176 0.724540 
-42.623428 12.763020 23.821150 -0.248354 -0.652227 0.716185 
-26.133659 30.282761 48.794682 -0.169902 -0.776421 0.606881 
-25.700480 31.757339 50.785278 -0.170296 -0.780926 0.600961 
-26.663210 28.882530 46.838470 -0.179031 -0.770620 0.611632 
-27.326571 27.451679 44.879539 -0.187712 -0.755836 0.627277 
-28.093880 26.016840 42.957211 -0.200608 -0.736923 0.645524 
-28.952539 24.583870 41.099739 -0.210249 -0.727376 0.653238 
-29.870520 23.210661 39.260132 -0.231750 -0.712155 0.662666 
-30.867460 21.834221 37.474850 -0.236189 -0.702958 0.670869 
-31.895390 20.513660 35.718979 -0.259065 -0.698655 0.666908 
-32.951439 19.263590 33.971619 -0.270713 -0.700346 0.660477 
-34.048401 18.044861 32.218761 -0.267235 -0.698456 0.663887 
-35.188210 16.821960 30.500931 -0.278485 -0.681171 0.677091 
-36.385059 15.648720 28.847260 -0.265924 -0.681174 0.682119 
-37.645710 14.528760 27.253469 -0.255398 -0.658890 0.707557 
-38.960800 13.437770 25.708790 -0.249493 -0.649316 0.718430 
-40.339249 12.408260 24.244400 -0.242340 -0.674808 0.697069 
-41.786320 11.493340 22.843340 -0.236350 -0.671907 0.701911 
-24.077789 29.279390 48.086540 -0.175043 -0.768267 0.615732 
-23.596531 30.816370 50.171638 -0.152065 -0.776658 0.611292 
-24.690460 27.767981 46.059181 -0.188151 -0.754193 0.629120 
-25.426720 26.259199 44.063400 -0.192556 -0.741348 0.642904 
-26.257900 24.764700 42.127529 -0.216793 -0.718580 0.660790 
-27.183821 23.287939 40.256611 -0.217000 -0.705592 0.674575 
-28.187960 21.841810 38.447498 -0.241627 -0.693201 0.679035 
-29.247379 20.464750 36.640228 -0.253009 -0.686647 0.681544 
-30.356701 19.119780 34.899479 -0.274291 -0.680936 0.679037 
-31.495770 17.879820 33.138439 -0.285698 -0.690519 0.664500 
-32.702309 16.678391 31.354870 -0.271940 -0.694119 0.666519 
-33.954151 15.474120 29.629339 -0.265649 -0.688496 0.674836 
-35.232681 14.323210 27.955179 -0.262731 -0.687372 0.677120 
-36.571831 13.212980 26.319420 -0.242341 -0.686546 0.685511 
-37.990299 12.120040 24.772381 -0.227248 -0.662849 0.713435 
-39.455349 11.119820 23.304041 -0.219577 -0.712270 0.666676 
-40.952518 10.267800 21.817680 -0.222607 -0.707685 0.670543 
-22.058371 28.133890 47.270290 -0.156749 -0.752884 0.639215 
-21.487360 29.807261 49.357479 -0.152586 -0.749300 0.644413 
-22.734060 26.554029 45.220699 -0.180938 -0.747660 0.638957 
-23.535250 24.994080 43.183231 -0.197590 -0.719468 0.665826 
-24.436810 23.392780 41.300072 -0.209920 -0.700070 0.682522 
-25.419411 21.886959 39.416039 -0.242197 -0.685180 0.686927 
-26.491011 20.420429 37.611912 -0.249129 -0.674317 0.695148 
-27.640791 19.014931 35.831409 -0.261454 -0.667302 0.697388 
-28.837980 17.668301 34.095730 -0.283804 -0.673854 0.682185 
-30.063730 16.468870 32.306332 -0.293565 -0.695364 0.655964 
-31.368509 15.313010 30.469009 -0.275770 -0.698161 0.660698 
-32.720310 14.118130 28.714190 -0.261299 -0.690190 0.674804 
-34.096790 12.978930 27.023300 -0.243930 -0.701083 0.670060 
-35.523830 11.896840 25.367611 -0.231128 -0.709384 0.665848 
-37.002480 10.857220 23.753889 -0.214074 -0.726375 0.653109 
-38.519402 9.919986 22.188000 -0.199565 -0.746974 0.634195 
-40.077301 9.061700 20.671009 -0.212162 -0.748704 0.628037 
-39.206829 7.872200 19.547070 -0.186135 -0.783572 0.592764 
-38.293949 6.826702 18.279570 -0.165268 -0.823969 0.541998 
-37.320881 5.785978 16.960720 -0.154967 -0.827795 0.539203 
-36.301281 4.725606 15.627150 -0.156894 -0.841027 0.517742 
-35.230469 3.740674 14.266890 -0.145390 -0.865526 0.479298 
-34.087662 2.839113 12.894040 -0.134751 -0.876061 0.462988 
-32.869740 1.941417 11.551360 -0.135582 -0.877161 0.460658 
-31.547951 1.091690 10.306850 -0.129183 -0.895394 0.426123 
-30.152229 0.336379 9.002713 -0.130809 -0.907981 0.398069 
-28.640240 -0.419299 7.820764 -0.139092 -0.904865 0.402335 
-37.570290 8.710894 21.063601 -0.192486 -0.755585 0.626131 
-36.600620 7.556209 19.922609 -0.169766 -0.798020 0.578225 
-35.550610 6.517306 18.632950 -0.164203 -0.831423 0.530823 
-34.469318 5.466689 17.316231 -0.158399 -0.833594 0.529179 
-33.354050 4.420180 15.984920 -0.139386 -0.847113 0.512808 
-32.159389 3.456119 14.619750 -0.125628 -0.868106 0.480218 
-30.860960 2.576617 13.306850 -0.126896 -0.877512 0.462462 
-29.517420 1.691997 12.000280 -0.127567 -0.876703 0.463809 
-28.083151 0.836461 10.777070 -0.133508 -0.888148 0.439737 
-26.589741 0.031674 9.531458 -0.128916 -0.900678 0.414921 
-35.986141 9.631581 22.662661 -0.190767 -0.752846 0.629945 
-34.930260 8.448098 21.506500 -0.186092 -0.767422 0.613542 
-33.844139 7.268562 20.355070 -0.176800 -0.802185 0.570300 
-32.704651 6.237412 19.084949 -0.150264 -0.840923 0.519874 
-31.510250 5.223044 17.729660 -0.130695 -0.847223 0.514909 
-30.250010 4.208949 16.375320 -0.136066 -0.851056 0.507139 
-28.931339 3.219823 15.057030 -0.133513 -0.865542 0.482712 
-27.524290 2.345882 13.787190 -0.125731 -0.876838 0.464054 
-26.075680 1.452857 12.493860 -0.126252 -0.876545 0.464466 
-24.551580 0.583003 11.265680 -0.129848 -0.881958 0.453089 
-34.439880 10.641000 24.320181 -0.211549 -0.737716 0.641110 
-33.308998 9.386230 23.212139 -0.204041 -0.762309 0.614209 
-32.163410 8.190741 22.035999 -0.185303 -0.780740 0.596748 
-30.984720 7.029310 20.848471 -0.154330 -0.815523 0.557767 
-29.705311 6.013267 19.535570 -0.142769 -0.846917 0.512199 
-28.377510 4.977301 18.189421 -0.149764 -0.851895 0.501842 
-27.018970 3.974870 16.877279 -0.134593 -0.856649 0.498034 
-25.593090 3.029123 15.589020 -0.125649 -0.868430 0.479626 
-24.089701 2.117992 14.283210 -0.124537 -0.875880 0.466181 
-22.531620 1.225647 13.020830 -0.131352 -0.874960 0.466037 
-32.929062 11.678310 26.027710 -0.238919 -0.727242 0.643457 
-31.739759 10.373770 24.955130 -0.220350 -0.748875 0.625006 
-30.527189 9.119680 23.808380 -0.189643 -0.783153 0.592205 
-29.257271 7.973636 22.581249 -0.171514 -0.802291 0.571763 
-27.928749 6.810857 21.352690 -0.177802 -0.821779 0.541355 
-26.562010 5.743139 20.078470 -0.158430 -0.852513 0.498118 
-25.148790 4.769133 18.747290 -0.136275 -0.864210 0.484325 
-23.661760 3.795289 17.425440 -0.139286 -0.865455 0.481236 
-22.126261 2.830969 16.138830 -0.143743 -0.870733 0.470279 
-20.554729 1.903337 14.872580 -0.141542 -0.874617 0.463692 
-31.479780 12.732390 27.781000 -0.248987 -0.711994 0.656559 
-30.223261 11.407880 26.721640 -0.227553 -0.742848 0.629601 
-28.940559 10.107610 25.603769 -0.201403 -0.761183 0.616472 
-27.588499 8.849371 24.424299 -0.192899 -0.790500 0.581291 
-26.179430 7.666176 23.202129 -0.193994 -0.812518 0.549709 
-24.788469 6.526090 21.979670 -0.179312 -0.840587 0.511136 
-23.334280 5.527215 20.685530 -0.152041 -0.860283 0.486618 
-21.788240 4.518981 19.371269 -0.156084 -0.865077 0.476738 
-20.234961 3.538985 18.092051 -0.154808 -0.873208 0.462106 
-18.652370 2.602824 16.801310 -0.136689 -0.876983 0.460669 
-30.024309 13.891960 29.530319 -0.269523 -0.702503 0.658670 
-28.699760 12.486310 28.546690 -0.249669 -0.739934 0.624630 
-27.317730 11.193930 27.423759 -0.235062 -0.769297 0.594077 
-25.896540 9.873136 26.283939 -0.252738 -0.773408 0.581347 
-24.474310 8.552091 25.146240 -0.251024 -0.793771 0.553999 
-23.061270 7.350560 23.949381 -0.193508 -0.836248 0.513073 
-21.560320 6.347242 22.659439 -0.168253 -0.860879 0.480185 
-19.977160 5.300098 21.362341 -0.180520 -0.860256 0.476835 
-18.416941 4.272483 20.103081 -0.162384 -0.875855 0.454434 
-16.812611 3.366859 18.769510 -0.127793 -0.881849 0.453885 
-28.629391 15.019870 31.388639 -0.299477 -0.700917 0.647325 
-27.226021 13.537930 30.443501 -0.296725 -0.712961 0.635327 
-25.806129 12.109500 29.437630 -0.293619 -0.747555 0.595777 
-24.342770 10.726270 28.331890 -0.280417 -0.774710 0.566737 
-22.889380 9.402535 27.177151 -0.253605 -0.799623 0.544324 
-21.424370 8.199510 25.979700 -0.204980 -0.827639 0.522491 
-19.865931 7.094798 24.712250 -0.198340 -0.854136 0.480743 
-18.253969 6.021614 23.419340 -0.190678 -0.860810 0.471856 
-16.669319 4.987661 22.155390 -0.146646 -0.879811 0.452136 
-15.023660 4.130300 20.792240 -0.117676 -0.893309 0.433764 
-27.352011 16.165260 33.225540 -0.286492 -0.682284 0.672615 
-25.873159 14.645790 32.288681 -0.280332 -0.695101 0.662004 
-24.402399 13.146460 31.302561 -0.275100 -0.718203 0.639143 
-22.914450 11.704570 30.254820 -0.265867 -0.743694 0.613379 
-21.426279 10.324010 29.166090 -0.230495 -0.779849 0.581985 
-19.867510 9.081988 27.948481 -0.204096 -0.810258 0.549388 
-18.277201 7.876263 26.725100 -0.190261 -0.835120 0.516115 
-16.644939 6.803350 25.445869 -0.160188 -0.855675 0.492097 
-14.990250 5.788552 24.164820 -0.131458 -0.871396 0.472640 
-13.285490 4.870479 22.820990 -0.119557 -0.889744 0.440525 
-26.086069 17.478239 34.966030 -0.268510 -0.663496 0.698338 
-24.553120 15.909920 34.067020 -0.272696 -0.668068 0.692331 
-23.043140 14.337650 33.130520 -0.264116 -0.688960 0.674964 
-21.530800 12.842150 32.114399 -0.235411 -0.718022 0.655001 
-19.981819 11.416030 31.026260 -0.207270 -0.746723 0.632016 
-18.397551 10.083980 29.882250 -0.190294 -0.780223 0.595852 
-16.774441 8.844649 28.679710 -0.156945 -0.811002 0.563600 
-15.103000 7.728163 27.409821 -0.132454 -0.831255 0.539881 
-13.356940 6.634781 26.114929 -0.116582 -0.847777 0.517381 
-11.606570 5.665589 24.815929 -0.106606 -0.875953 0.470470 
-24.859930 18.874701 36.759911 -0.261805 -0.660867 0.703358 
-23.279091 17.283421 35.856548 -0.263443 -0.659763 0.703783 
-21.743940 15.672040 34.919659 -0.235979 -0.669120 0.704693 
-20.181860 14.138720 33.905472 -0.209745 -0.692085 0.690671 
-18.600361 12.663790 32.858810 -0.192323 -0.719308 0.667539 
-16.985439 11.277800 31.742241 -0.163303 -0.747241 0.644176 
-15.317810 9.979041 30.574789 -0.124215 -0.780521 0.612664 
-13.556930 8.823665 29.315620 -0.120252 -0.817849 0.562728 
-11.755720 7.707740 28.042200 -0.128947 -0.827743 0.546090 
-9.961790 6.603159 26.797960 -0.107679 -0.850461 0.514900 
-23.726830 20.357889 38.549889 -0.242547 -0.657814 0.713058 
-22.107910 18.750210 37.643459 -0.230775 -0.656246 0.718390 
-20.503860 17.163811 36.665668 -0.207379 -0.661281 0.720904 
-18.893789 15.590200 35.670631 -0.202254 -0.671589 0.712785 
-17.268511 14.062230 34.659729 -0.177557 -0.696167 0.695576 
-15.614080 12.650150 33.566250 -0.153881 -0.732602 0.663035 
-13.862050 11.300090 32.404339 -0.146667 -0.743367 0.652606 
-12.055530 9.946895 31.286779 -0.165550 -0.784156 0.598074 
-10.238290 8.764819 30.080271 -0.138925 -0.824019 0.549265 
-8.377787 7.663664 28.792891 -0.109057 -0.835812 0.538075 
-22.679609 21.953360 40.344219 -0.210792 -0.679270 0.702965 
-20.986259 20.354980 39.399899 -0.211197 -0.652886 0.727417 
-19.337130 18.743860 38.432331 -0.207611 -0.655002 0.726547 
-17.694340 17.141390 37.441181 -0.190621 -0.658429 0.728103 
-16.018900 15.570920 36.429291 -0.180018 -0.667056 0.722932 
-14.319800 14.046090 35.421841 -0.158315 -0.705327 0.690977 
-12.492960 12.666300 34.275318 -0.174008 -0.731206 0.659590 
-10.650210 11.192410 33.223228 -0.185172 -0.750099 0.634872 
-8.823628 9.914801 32.090469 -0.146723 -0.805367 0.574332 
-6.902259 8.788041 30.813940 -0.104884 -0.824787 0.555631 
-21.719290 23.562950 42.251011 -0.197902 -0.696672 0.689552 
-19.955561 22.034321 41.218769 -0.138295 -0.649444 0.747728 
-18.272470 20.406731 40.226490 -0.188386 -0.656602 0.730332 
-16.591520 18.813540 39.188850 -0.167789 -0.654730 0.737004 
-14.873330 17.198580 38.151192 -0.173269 -0.653828 0.736537 
-13.130840 15.600210 37.148350 -0.166692 -0.660124 0.732427 
-11.305450 14.047210 36.119652 -0.183081 -0.686827 0.703385 
-9.427146 12.517580 35.089890 -0.167905 -0.701101 0.693011 
-7.535703 11.095040 34.035900 -0.112054 -0.758189 0.642335 
-5.534387 9.996435 32.791222 -0.080279 -0.806475 0.585794 
-20.852060 25.240540 44.190090 -0.173741 -0.720772 0.671045 
-19.052990 23.725349 43.136349 -0.117088 -0.669542 0.733487 
-17.306910 22.161699 42.029911 -0.179634 -0.654781 0.734162 
-15.561830 20.535101 40.944031 -0.166376 -0.657073 0.735237 
-13.812400 18.890591 39.896049 -0.165462 -0.652727 0.739303 
-12.034030 17.269449 38.849289 -0.152871 -0.654035 0.740857 
-10.204670 15.674880 37.802090 -0.145255 -0.662091 0.735212 
-8.300952 14.123600 36.754608 -0.133944 -0.667330 0.732619 
-6.352097 12.646410 35.747532 -0.110817 -0.690997 0.714313 
-4.293052 11.348850 34.693001 -0.075843 -0.743889 0.663986 
-20.119390 26.867990 46.217121 -0.162827 -0.730208 0.663538 
-18.218420 25.465950 45.084301 -0.165357 -0.703109 0.691589 
-16.400721 23.915760 43.896801 -0.141885 -0.681026 0.718381 
-14.605310 22.282480 42.739578 -0.158164 -0.670019 0.725299 
-12.816850 20.626591 41.638409 -0.157962 -0.656168 0.737897 
-11.018100 18.986200 40.575550 -0.159397 -0.654957 0.738663 
-9.181812 17.370741 39.534050 -0.141812 -0.655018 0.742186 
-7.266710 15.817330 38.493752 -0.131054 -0.658144 0.741398 
-5.291936 14.320540 37.510181 -0.094371 -0.673627 0.733022 
-3.209111 13.032970 36.459000 -0.074456 -0.697754 0.712458 
-19.388651 28.592291 48.357738 -0.125739 -0.742071 0.658423 
-17.408831 27.148689 47.112511 -0.136380 -0.739694 0.658978 
-15.520060 25.677780 45.888561 -0.132261 -0.737788 0.661948 
-13.692770 24.048250 44.598129 -0.144719 -0.693869 0.705409 
-11.877220 22.371490 43.407070 -0.153833 -0.645010 0.748531 
-10.084760 20.704229 42.314461 -0.147736 -0.660421 0.736219 
-8.260028 19.113991 41.208328 -0.112651 -0.651147 0.750545 
-6.346668 17.561260 40.149059 -0.107322 -0.646338 0.755466 
-4.375898 16.092039 39.173241 -0.090366 -0.646406 0.757624 
-2.295528 14.738700 38.223351 -0.075406 -0.672208 0.736512 
-23.325701 32.493488 52.354351 -0.139926 -0.781741 0.607702 
-21.025379 31.588690 51.670528 -0.123030 -0.776082 0.618515 
-25.469021 33.252392 52.841808 -0.160509 -0.790277 0.591354 
-27.594450 34.015251 53.333279 -0.172986 -0.756177 0.631088 
22.276279 24.579630 51.281551 -0.060295 -0.611072 0.789276 
20.645809 24.750019 51.237610 -0.045901 -0.497353 0.866333 
21.331100 24.228010 50.701988 -0.182712 -0.688018 0.702316 
19.919840 24.264690 50.515148 0.022750 -0.749143 0.662018 
20.664209 23.986959 50.296371 0.026245 -0.720791 0.692656 
18.913710 24.638439 50.813702 -0.099177 -0.685846 0.720958 
17.754160 25.081350 51.184200 -0.099504 -0.676579 0.729616 
16.475300 25.566750 51.596088 -0.084092 -0.648038 0.756951 
11.375790 20.674391 45.406029 -0.081321 -0.706704 0.702820 
11.958000 21.967270 46.760571 -0.097987 -0.716075 0.691112 
10.916270 19.379070 44.031860 -0.072390 -0.717290 0.693004 
10.596140 18.056820 42.613819 -0.060172 -0.719703 0.691670 
10.305210 16.586069 41.071640 -0.060564 -0.716375 0.695082 
10.191460 15.124510 39.555721 -0.061472 -0.714796 0.696626 
10.183330 13.606480 37.999611 -0.013066 -0.752225 0.658777 
10.345770 12.168070 36.189770 0.025268 -0.780289 0.624908 
10.850470 10.699190 34.347832 0.038249 -0.792422 0.608773 
11.773110 9.429274 32.534988 0.059336 -0.827744 0.557960 
14.235750 25.256710 50.771820 -0.112661 -0.695016 0.710113 
15.647080 24.725719 50.371868 -0.050935 -0.752856 0.656212 
13.336540 24.203030 49.456459 -0.095125 -0.745334 0.659870 
14.841470 23.705379 49.107288 -0.091452 -0.744951 0.660821 
12.608060 23.139080 48.142502 -0.101659 -0.739394 0.665554 
14.246800 22.691540 47.881538 -0.091554 -0.740728 0.665537 
13.672220 21.553921 46.550350 -0.081860 -0.728911 0.679697 
13.256000 20.373449 45.272781 -0.065578 -0.722293 0.688472 
12.879940 19.125690 43.927181 -0.059063 -0.723750 0.687530 
12.633910 17.840660 42.554661 -0.056509 -0.719125 0.692579 
12.466290 16.474400 41.138180 -0.052619 -0.714864 0.697281 
12.398470 15.101100 39.722500 -0.036287 -0.743621 0.667616 
12.467070 13.818290 38.183319 0.001329 -0.776619 0.629969 
12.835020 12.538530 36.576809 -0.003580 -0.781964 0.623313 
13.360300 11.221700 34.933380 0.025301 -0.796016 0.604746 
14.192970 10.082720 33.285271 0.048866 -0.830871 0.554315 
17.002110 24.274509 50.048611 -0.039826 -0.755090 0.654410 
16.373329 23.337870 48.900082 -0.072228 -0.751944 0.655259 
15.833170 22.334801 47.688332 -0.080834 -0.749714 0.656806 
15.444430 21.299650 46.460850 -0.080040 -0.735508 0.672771 
15.115660 20.160101 45.224350 -0.064919 -0.724815 0.685879 
14.873100 18.991400 43.965248 -0.061996 -0.726338 0.684536 
14.679500 17.761570 42.639759 -0.055965 -0.725664 0.685769 
14.591820 16.514050 41.318829 -0.039692 -0.731203 0.681005 
14.601770 15.271550 39.960129 -0.010067 -0.747953 0.663676 
14.762470 14.049600 38.545090 -0.013395 -0.766900 0.641627 
15.176860 12.859650 37.086819 0.002647 -0.793770 0.608212 
15.703910 11.736320 35.522659 0.037240 -0.808593 0.587189 
16.486231 10.667000 33.986210 0.044547 -0.821250 0.568826 
18.342230 23.919741 49.832809 -0.104379 -0.771822 0.627213 
17.832670 23.084620 48.725521 -0.077402 -0.757326 0.648434 
17.463160 22.134960 47.640541 -0.058101 -0.740084 0.670000 
17.155640 21.119940 46.485840 -0.062611 -0.740386 0.669260 
16.927361 20.056070 45.284359 -0.051026 -0.735244 0.675879 
16.753510 18.923941 44.062462 -0.046107 -0.731360 0.680431 
16.681179 17.800510 42.839649 -0.041617 -0.737000 0.674610 
16.669849 16.656620 41.578098 -0.019659 -0.748826 0.662476 
16.756260 15.518170 40.263290 -0.006312 -0.756459 0.654010 
16.965521 14.375280 38.941422 0.010288 -0.773219 0.634056 
17.400810 13.305140 37.553680 0.042515 -0.797491 0.601831 
17.940680 12.267810 36.084370 0.045449 -0.808569 0.586644 
18.675150 11.265750 34.644569 0.060752 -0.820605 0.568257 
19.569700 23.638210 49.688660 -0.169261 -0.713902 0.679482 
19.295080 22.893259 48.729328 -0.104163 -0.771575 0.627553 
19.045891 22.046591 47.650780 -0.074806 -0.762460 0.642696 
18.852200 21.104111 46.559780 -0.053769 -0.746750 0.662928 
18.703381 20.081600 45.408119 -0.035781 -0.739631 0.672061 
18.645340 19.023781 44.254452 -0.030463 -0.734987 0.677397 
18.641729 17.961599 43.099789 -0.018866 -0.745562 0.666170 
18.700460 16.906000 41.883678 0.002856 -0.754417 0.656389 
18.854170 15.822460 40.637501 0.018089 -0.761713 0.647663 
19.150610 14.777600 39.363750 0.044632 -0.784387 0.618664 
19.558319 13.789080 38.012402 0.058931 -0.797384 0.600588 
20.115370 12.794470 36.638680 0.055815 -0.806474 0.588630 
20.805180 11.882310 35.281250 0.076677 -0.831017 0.550937 
20.663080 23.471830 49.663830 -0.105312 -0.770548 0.628622 
20.643009 22.799351 48.835110 -0.106063 -0.770606 0.628424 
20.591471 22.006781 47.854012 -0.098175 -0.771026 0.629191 
20.550560 21.155041 46.803268 -0.071187 -0.773031 0.630362 
20.497709 20.220591 45.657780 -0.048611 -0.756158 0.652581 
20.481951 19.208670 44.538319 -0.021201 -0.744356 0.667446 
20.517820 18.216749 43.412121 0.029530 -0.758736 0.650728 
20.638300 17.220591 42.206902 0.046114 -0.769968 0.636414 
20.852770 16.228760 40.981430 0.061247 -0.772513 0.632039 
21.169559 15.251920 39.750290 0.070260 -0.782103 0.619176 
21.643320 14.305480 38.466068 0.068838 -0.790804 0.608187 
22.162630 13.341840 37.154739 0.069441 -0.797299 0.599577 
22.900591 12.473910 35.882919 0.068876 -0.823582 0.563001 
24.957920 13.041510 36.467480 0.080221 -0.804484 0.588532 
26.935280 13.679830 36.981060 0.141764 -0.793053 0.592427 
28.897770 14.480570 37.458351 0.141181 -0.795215 0.589661 
30.991659 15.177940 38.037922 0.108756 -0.836194 0.537542 
33.070721 15.761970 38.606972 0.077639 -0.841335 0.534909 
35.094059 16.281071 39.173969 0.080417 -0.849424 0.521547 
24.300550 13.936360 37.675110 0.066877 -0.785770 0.614893 
26.261190 14.531000 38.226429 0.108010 -0.782173 0.613628 
28.272720 15.309370 38.730160 0.126427 -0.815993 0.564067 
30.375210 15.932310 39.335281 0.093139 -0.841951 0.531453 
32.432419 16.501511 39.885311 0.085040 -0.843857 0.529786 
34.481022 17.035299 40.433331 0.066871 -0.840821 0.537167 
23.745649 14.861360 38.933632 0.071770 -0.787174 0.612541 
25.780569 15.447950 39.449211 0.069029 -0.780256 0.621640 
27.784439 16.079920 40.013931 0.090844 -0.824931 0.557886 
29.832220 16.673880 40.601471 0.083150 -0.830957 0.550088 
31.857920 17.234110 41.142422 0.083440 -0.834289 0.544977 
33.895660 17.796150 41.700779 0.065411 -0.837281 0.542845 
23.282290 15.785110 40.170811 0.074220 -0.776883 0.625255 
25.317341 16.361990 40.641109 0.053010 -0.779540 0.624105 
27.355659 16.905081 41.224659 0.054920 -0.812058 0.580987 
29.349030 17.454809 41.784321 0.060641 -0.812534 0.579751 
31.342930 18.002741 42.345711 0.062345 -0.815765 0.575014 
33.363281 18.556040 42.912811 0.044558 -0.823923 0.564948 
22.887251 16.742420 41.373920 0.068555 -0.768970 0.635599 
24.955549 17.305670 41.847309 0.041834 -0.796761 0.602845 
26.956100 17.763371 42.440739 0.035891 -0.811042 0.583885 
28.895340 18.294680 42.972752 0.057865 -0.805644 0.589567 
30.863520 18.832239 43.519279 0.053552 -0.804869 0.591031 
32.856911 19.377790 44.090561 0.034024 -0.813746 0.580224 
22.629089 17.710739 42.575958 0.046368 -0.772564 0.633241 
24.657940 18.181030 43.087280 0.029590 -0.814940 0.578790 
26.590590 18.611509 43.639069 0.033208 -0.804531 0.592981 
28.481800 19.122150 44.147598 0.056367 -0.801242 0.595679 
30.409960 19.666201 44.698818 0.049220 -0.801928 0.595389 
32.362709 20.213499 45.299679 0.026198 -0.819772 0.572090 
22.448111 18.659389 43.746960 0.028610 -0.791214 0.610870 
24.399401 19.014120 44.264450 0.004436 -0.800629 0.599143 
26.255360 19.448530 44.766418 0.034180 -0.791455 0.610271 
28.102600 19.950630 45.273258 0.047286 -0.789927 0.611375 
29.982750 20.489540 45.825279 0.030322 -0.793835 0.607377 
31.896690 21.008801 46.467060 -0.001205 -0.815017 0.579436 
22.327860 19.532660 44.936630 0.011453 -0.797306 0.603467 
24.157850 19.894480 45.377289 0.006213 -0.783389 0.621501 
25.945160 20.298691 45.865162 0.026051 -0.784696 0.619334 
27.722370 20.800659 46.376080 0.043645 -0.783970 0.619263 
29.547800 21.341061 46.934650 0.023464 -0.791715 0.610440 
31.408649 21.839100 47.582470 -0.016627 -0.809534 0.586838 
22.227020 20.419390 46.057442 -0.024601 -0.784371 0.619804 
23.925930 20.760000 46.473000 0.005556 -0.784227 0.620449 
25.637489 21.157419 46.960621 0.020434 -0.782322 0.622539 
27.337210 21.653311 47.484001 0.037559 -0.785423 0.617819 
29.090111 22.183710 48.059399 0.019945 -0.801352 0.597860 
30.865061 22.664680 48.722321 -0.012741 -0.813376 0.581599 
22.115450 21.282480 47.141769 -0.033898 -0.782919 0.621200 
23.700741 21.608080 47.546089 0.003899 -0.783140 0.621833 
25.321760 22.003139 48.031311 0.015621 -0.781755 0.623391 
26.941370 22.488310 48.569939 0.023617 -0.788474 0.614615 
28.603741 22.998770 49.184158 0.014032 -0.807491 0.589713 
30.278749 23.482590 49.851479 -0.004837 -0.812069 0.583542 
22.021749 22.120560 48.194698 -0.040808 -0.781842 0.622140 
23.466801 22.430580 48.578609 0.023843 -0.746500 0.664958 
24.981819 22.826820 49.074409 0.008108 -0.781477 0.623881 
26.513760 23.304211 49.634762 0.009385 -0.792384 0.609951 
28.079451 23.796881 50.286419 -0.062183 -0.747844 0.660956 
29.646709 24.288589 50.968460 -0.049218 -0.824171 0.564199 
21.892229 22.883711 49.147072 -0.028768 -0.730106 0.682728 
23.198179 23.209120 49.556599 0.002434 -0.782798 0.622271 
24.551559 23.620359 50.070839 -0.068823 -0.712440 0.698350 
26.026470 24.095310 50.671089 -0.014708 -0.689482 0.724153 
27.504391 24.566719 51.344318 0.014588 -0.817257 0.576088 
21.685511 23.602510 49.993511 0.079737 -0.817635 0.570188 
22.773199 23.929800 50.462231 0.049827 -0.679268 0.732197 
24.010370 24.370350 51.016190 -0.035147 -0.681287 0.731173 
11.011070 23.727350 48.540401 -0.109685 -0.744049 0.659060 
9.449257 24.435749 49.081558 -0.112193 -0.748159 0.653965 
11.864310 24.813641 49.928581 -0.053751 -0.707638 0.704528 
12.845880 25.879940 51.278790 -0.088657 -0.674914 0.732551 
10.381170 25.516790 50.477509 -0.057412 -0.712337 0.699485 
11.456990 26.583799 51.877159 -0.071594 -0.655427 0.751857 
-12.251210 -7.801306 -10.968380 -0.031948 -0.992650 0.116731 
-13.414340 -7.530125 -9.238417 -0.047084 -0.982445 0.180511 
-11.112290 -8.027971 -12.815580 -0.023594 -0.993885 0.107866 
-10.013270 -8.260803 -14.722960 0.007573 -0.995126 0.098318 
-8.955586 -8.392008 -16.679020 0.033237 -0.996683 0.074286 
-7.900358 -8.486234 -18.679770 0.037037 -0.997318 0.063128 
-6.858331 -8.570954 -20.726231 0.039430 -0.997500 0.058645 
-5.855387 -8.650445 -22.822309 0.041553 -0.997041 0.064667 
-9.994781 -7.698420 -9.657596 -0.001665 -0.986355 0.164626 
-11.164250 -7.316386 -7.932028 -0.026756 -0.975139 0.219972 
-8.854086 -7.909302 -11.472480 0.028699 -0.994058 0.105001 
-7.750794 -8.030168 -13.381630 0.056284 -0.993971 0.094095 
-6.668911 -8.153885 -15.336800 0.057642 -0.994651 0.085719 
-5.609454 -8.247247 -17.328640 0.058076 -0.995248 0.078153 
-4.583526 -8.348873 -19.365320 0.055463 -0.995680 0.074469 
-3.606147 -8.441888 -21.427900 0.057183 -0.996154 0.066382 
-7.715367 -7.368566 -8.326916 0.038961 -0.982787 0.180588 
-8.915525 -7.050267 -6.558594 0.004038 -0.980101 0.198461 
-6.556435 -7.612185 -10.125470 0.051747 -0.989730 0.133253 
-5.430236 -7.745700 -12.002640 0.063915 -0.991985 0.109001 
-4.331739 -7.889694 -13.952800 0.065356 -0.992791 0.100469 
-3.280004 -8.001926 -15.940840 0.068281 -0.993651 0.089412 
-2.273510 -8.109684 -17.975491 0.071179 -0.993993 0.083138 
-1.320853 -8.201735 -20.013741 0.079083 -0.994723 0.065359 
-5.403185 -7.013099 -6.907492 0.033588 -0.983515 0.177682 
-6.633028 -6.732213 -5.141753 0.005122 -0.980432 0.196791 
-4.232017 -7.295693 -8.715352 0.056567 -0.987734 0.145541 
-3.099132 -7.424200 -10.589710 0.072028 -0.991190 0.111152 
-1.994591 -7.562631 -12.533130 0.075352 -0.991675 0.104412 
-0.939318 -7.673550 -14.513800 0.079617 -0.992304 0.094832 
0.067082 -7.779883 -16.535780 0.082419 -0.992343 0.091998 
0.998829 -7.887628 -18.572149 0.089396 -0.993246 0.073970 
-3.156613 -6.691616 -5.443133 0.054481 -0.984204 0.168447 
-4.387587 -6.448783 -3.700195 0.022233 -0.973478 0.227697 
-1.945950 -6.926008 -7.263558 0.069378 -0.986292 0.149714 
-0.791961 -7.086679 -9.132218 0.074899 -0.989417 0.124273 
0.338224 -7.230098 -11.060280 0.077132 -0.990929 0.110047 
1.388682 -7.348966 -13.030480 0.087824 -0.991065 0.100384 
2.392131 -7.451543 -15.059840 0.102975 -0.989420 0.102197 
3.309107 -7.565980 -17.097780 0.128738 -0.988236 0.082558 
-0.954578 -6.265284 -3.981483 0.073877 -0.974382 0.212417 
-2.212933 -5.949398 -2.232804 0.061295 -0.965687 0.252373 
0.273403 -6.533291 -5.782922 0.084758 -0.980978 0.174635 
1.447325 -6.709408 -7.646525 0.095698 -0.984370 0.147842 
2.565189 -6.876599 -9.568412 0.117643 -0.984320 0.131434 
3.630288 -6.965418 -11.537840 0.148173 -0.983210 0.106503 
4.647040 -6.995800 -13.563210 0.164824 -0.981489 0.097537 
5.599391 -7.039867 -15.597370 0.185032 -0.979210 0.083128 
-0.749057 -3.846069 4.220708 0.058789 -0.938983 0.338901 
0.665699 -4.326278 2.541015 0.073640 -0.944694 0.319580 
