118.384201 154.478394 -30.762470 -0.503785 0.631337 0.589589 
117.419800 152.990402 -29.964569 -0.523930 0.617864 0.586294 
116.446602 151.441895 -29.291121 -0.537782 0.608041 0.584018 
115.490700 150.014099 -28.716681 -0.551937 0.599475 0.579652 
114.719299 148.913803 -28.374319 -0.565892 0.594002 0.571776 
113.928902 145.608093 -25.679480 -0.570036 0.581756 0.580189 
114.736000 144.545502 -23.837200 -0.560123 0.577174 0.594250 
114.115700 141.784805 -21.807949 -0.561182 0.563013 0.606705 
115.527496 143.529099 -22.096050 -0.546121 0.576807 0.607490 
101.585602 54.017189 12.648090 -0.697534 0.101071 0.709388 
103.035500 52.970940 14.274930 -0.685900 0.108059 0.719628 
104.386703 52.154911 15.745330 -0.673403 0.106186 0.731610 
168.034195 56.687130 44.877270 -0.116038 0.307168 0.944555 
170.984802 56.549049 45.286961 -0.092746 0.316785 0.943952 
169.669907 57.938122 44.552959 -0.107706 0.311762 0.944036 
172.317596 55.163609 46.019360 -0.084221 0.321398 0.943191 
225.072006 75.708733 31.154070 0.241854 0.441222 0.864193 
226.220093 77.546349 29.879890 0.246461 0.441870 0.862559 
224.674103 77.329857 30.448259 0.249616 0.435079 0.865100 
224.248901 78.867393 29.786680 0.260267 0.425657 0.866647 
223.856598 80.482681 29.088619 0.269219 0.417435 0.867911 
223.367706 82.125259 28.451740 0.282066 0.406807 0.868877 
222.693298 83.825630 27.849880 0.294209 0.399445 0.868265 
221.745697 85.486069 27.434139 0.308127 0.388491 0.868408 
222.175797 87.780930 26.247049 0.325014 0.384969 0.863808 
220.713699 87.063629 27.110371 0.326892 0.377849 0.866240 
223.580597 88.650558 25.310080 0.319556 0.391643 0.862844 
224.711105 89.873199 24.332121 0.323805 0.393261 0.860521 
225.632996 91.238159 23.358410 0.321956 0.398340 0.858877 
226.331497 92.755379 22.423189 0.326866 0.400107 0.856197 
226.845703 94.377960 21.454960 0.333977 0.401274 0.852900 
227.294907 96.059959 20.489969 0.337064 0.404383 0.850213 
227.706604 97.738518 19.517540 0.339340 0.408028 0.847562 
228.097900 99.401497 18.536551 0.343702 0.413396 0.843192 
228.349197 101.089104 17.598471 0.343417 0.418593 0.840741 
230.248596 102.521202 16.038130 0.329186 0.434671 0.838271 
228.257401 102.824997 16.715490 0.354690 0.423321 0.833663 
230.211395 105.056602 14.683050 0.339756 0.438912 0.831819 
227.888596 104.804901 15.839180 0.364378 0.424587 0.828827 
228.823303 107.257401 14.139050 0.363043 0.437089 0.822893 
227.105896 106.784500 15.165250 0.375365 0.427101 0.822609 
230.081100 107.849602 13.264670 0.346885 0.448385 0.823785 
249.828400 159.193802 -36.461472 -0.225683 -0.715820 -0.660809 
250.807999 160.757202 -38.474152 0.229538 0.720983 0.653832 
112.172897 123.684601 -9.986554 -0.536059 0.426350 0.728606 
113.272202 122.665100 -8.664243 -0.523239 0.425383 0.738424 
114.428802 121.574501 -7.292757 -0.514392 0.423482 0.745697 
115.539299 120.410202 -5.980828 -0.502948 0.426459 0.751782 
115.452400 117.637001 -4.532130 -0.505208 0.433515 0.746210 
116.626503 119.284500 -4.669041 -0.497175 0.431255 0.752885 
114.260696 115.989601 -4.364529 -0.512773 0.433341 0.741134 
113.060699 114.355598 -4.254664 -0.523840 0.432851 0.733642 
111.823097 112.734398 -4.154739 -0.530728 0.434106 0.727928 
110.625397 111.100197 -4.035738 -0.542441 0.430959 0.721132 
109.460403 109.501900 -3.921835 -0.549228 0.431003 0.715950 
108.330902 107.950500 -3.836974 -0.556643 0.431266 0.710041 
107.264801 106.485603 -3.753625 -0.561389 0.431897 0.705909 
106.415604 105.328102 -3.724545 -0.569037 0.428416 0.701895 
106.584999 103.962898 -2.738364 -0.567225 0.426379 0.704597 
105.654999 101.935501 -2.228139 -0.573466 0.417932 0.704606 
105.011200 100.159798 -1.660465 -0.576910 0.409881 0.706521 
104.647102 98.404037 -0.964603 -0.577195 0.399609 0.712151 
104.532898 96.605331 -0.075294 -0.579465 0.385108 0.718271 
104.469002 94.784866 0.847390 -0.579374 0.373365 0.724517 
104.387703 92.889030 1.674197 -0.581216 0.359525 0.730020 
104.263702 90.931747 2.454256 -0.584373 0.345521 0.734250 
104.128403 88.935211 3.199054 -0.585631 0.335180 0.738032 
103.980499 86.900368 3.935313 -0.588874 0.326258 0.739448 
103.739899 84.828262 4.619491 -0.591495 0.321256 0.739546 
103.257797 82.768333 5.128799 -0.594497 0.316588 0.739152 
102.848099 80.892288 5.607506 -0.599607 0.310448 0.737627 
102.508797 79.051376 6.130714 -0.602872 0.305546 0.737013 
102.226196 77.267616 6.647892 -0.606222 0.298086 0.737320 
101.965302 75.541580 7.159115 -0.612773 0.288094 0.735875 
101.806099 73.910309 7.696700 -0.619919 0.280284 0.732899 
101.825699 72.431679 8.298143 -0.625105 0.271219 0.731904 
102.280800 71.192413 9.197178 -0.626738 0.263938 0.733169 
102.885902 69.832260 10.261950 -0.630654 0.252631 0.733793 
103.286499 68.153320 11.203930 -0.636657 0.239356 0.733060 
103.588501 66.449249 12.069680 -0.642540 0.222577 0.733213 
103.887100 64.699623 12.830890 -0.644775 0.207653 0.735626 
104.219398 62.889042 13.570320 -0.649513 0.196552 0.734507 
103.524002 60.001709 13.529490 0.665161 -0.160594 -0.729226 
104.795097 61.254330 14.461440 -0.651926 0.181130 0.736332 
104.321999 58.746590 14.491530 -0.661764 0.155225 0.733467 
105.408699 59.749020 15.297750 -0.651910 0.172352 0.738450 
102.571899 58.411942 12.916340 -0.681928 0.135933 0.718677 
103.532799 57.357410 14.004140 -0.674443 0.136721 0.725558 
101.179703 55.608841 12.012840 -0.695427 0.107160 0.710561 
101.799500 56.856991 12.419260 -0.688885 0.121156 0.714674 
157.190002 57.254951 42.809052 -0.200893 0.294881 0.934177 
159.111298 58.130508 42.874962 -0.183781 0.297729 0.936794 
162.005402 57.348660 43.716709 -0.162030 0.297121 0.940992 
160.943893 59.049858 42.850269 -0.169609 0.299883 0.938777 
216.264297 45.240959 49.000999 0.172058 0.441014 0.880854 
217.031998 46.680271 48.072849 0.175040 0.443374 0.879079 
217.554398 48.306061 47.076408 0.174541 0.443696 0.879016 
217.474396 50.084881 46.159481 0.173792 0.447010 0.877484 
217.168900 51.825722 45.306759 0.170496 0.449373 0.876924 
216.805496 53.580139 44.473919 0.169390 0.451836 0.875872 
216.446899 55.339760 43.681599 0.165081 0.451339 0.876950 
216.073303 57.054020 42.892601 0.160307 0.450767 0.878129 
215.678802 58.728081 42.095112 0.161667 0.447623 0.879487 
215.262207 60.365528 41.315929 0.162565 0.440016 0.883152 
214.804901 61.978901 40.554161 0.165167 0.434931 0.885186 
214.332901 63.554070 39.862041 0.168219 0.427739 0.888111 
215.307297 65.470261 38.745361 0.179958 0.427155 0.886089 
213.840698 64.994919 39.261990 0.172330 0.422267 0.889940 
216.901398 66.042442 38.128830 0.188826 0.429640 0.883037 
218.600006 66.698769 37.437920 0.196665 0.435107 0.878638 
220.416901 67.440849 36.633560 0.202780 0.439727 0.874940 
214.621796 46.087200 48.926022 0.166911 0.446028 0.879318 
215.299393 47.376850 48.068600 0.170496 0.445218 0.879040 
215.750397 48.673012 47.259109 0.168870 0.447140 0.878379 
215.563797 50.097519 46.528118 0.167215 0.449824 0.877324 
215.180405 51.664379 45.781330 0.164656 0.454169 0.875568 
214.779007 53.348751 44.975189 0.162776 0.455307 0.875328 
214.443405 55.062271 44.139992 0.158257 0.454550 0.876550 
214.102600 56.775928 43.341831 0.155895 0.452972 0.877789 
213.734894 58.452171 42.542961 0.153231 0.447297 0.881162 
213.339203 60.101379 41.761620 0.154280 0.439055 0.885115 
212.932205 61.729729 40.985168 0.156469 0.432521 0.887943 
212.543396 63.354031 40.268421 0.161194 0.425085 0.890685 
212.244995 64.933319 39.598042 0.167336 0.417878 0.892960 
213.466003 66.091423 38.824211 0.174956 0.415789 0.892474 
212.155807 66.444420 38.930161 0.176207 0.411539 0.894196 
214.407303 66.831367 38.305168 0.185993 0.419514 0.888490 
215.879807 67.500351 37.675331 0.192342 0.424470 0.884777 
217.454300 68.232536 36.981392 0.200289 0.426578 0.881995 
219.041306 69.068916 36.166039 0.208089 0.434121 0.876492 
220.606903 70.184601 35.207088 0.215259 0.435464 0.874091 
221.766907 71.630798 34.154812 0.224902 0.439325 0.869720 
222.601898 73.075127 33.194599 0.231748 0.439075 0.868047 
223.170197 74.522713 32.305851 0.239821 0.435535 0.867637 
223.442795 75.846489 31.562571 0.247054 0.432862 0.866946 
223.121094 77.199310 30.973949 0.252457 0.426645 0.868470 
222.652206 78.652512 30.375380 0.262719 0.418799 0.869245 
222.200195 80.209221 29.749990 0.271708 0.409258 0.871024 
221.733795 81.777817 29.151220 0.284539 0.400127 0.871170 
221.023102 83.340752 28.651590 0.297371 0.391398 0.870849 
220.187897 84.915672 28.260851 0.312128 0.380984 0.870303 
219.188995 86.453888 27.959169 0.326672 0.367789 0.870642 
219.608002 88.624657 26.897301 0.342278 0.365042 0.865789 
218.169495 88.015373 27.754210 0.343819 0.356384 0.868780 
220.994400 89.319298 26.062691 0.342805 0.369399 0.863730 
222.241592 90.132828 25.195801 0.341829 0.374270 0.862018 
223.292496 91.128990 24.331921 0.343266 0.381164 0.858418 
224.059799 92.377029 23.480810 0.345609 0.383831 0.856288 
224.664307 93.789749 22.616970 0.348647 0.390025 0.852247 
225.110703 95.342247 21.718170 0.354342 0.389672 0.850057 
225.519394 96.961578 20.802700 0.355465 0.394826 0.847205 
225.966599 98.556992 19.860781 0.357791 0.399342 0.844104 
226.435806 100.062599 18.927670 0.356987 0.405234 0.841633 
226.736404 101.450401 18.127939 0.359331 0.409137 0.838742 
226.518005 102.951401 17.476191 0.371226 0.412374 0.831949 
226.022003 104.617897 16.831600 0.378562 0.412697 0.828476 
225.370102 106.460701 16.254181 0.386159 0.415057 0.823778 
226.396500 108.677101 14.594250 0.387128 0.433913 0.813543 
224.675705 108.284500 15.731500 0.398420 0.419770 0.815508 
228.139603 109.084702 13.522840 0.372372 0.442657 0.815717 
229.914505 109.397499 12.504540 0.354306 0.455412 0.816742 
242.631805 144.727295 -19.646830 0.224979 0.677791 0.699988 
241.363403 145.704300 -20.161949 0.227755 0.679805 0.697132 
239.956802 146.548203 -20.482201 0.233832 0.682511 0.692460 
239.386902 148.577499 -22.274639 0.229287 0.688550 0.687987 
238.597504 147.575104 -20.989389 0.233730 0.685669 0.689368 
240.196198 149.679794 -23.659950 0.224899 0.692047 0.685924 
241.119095 150.763199 -25.067350 0.221570 0.693219 0.685824 
242.132599 151.801300 -26.453939 0.220417 0.695964 0.683411 
243.047501 152.838898 -27.828569 0.217452 0.698687 0.681579 
243.464096 153.750305 -28.903250 0.217129 0.701666 0.678616 
242.488602 154.587906 -29.440960 0.216188 0.702970 0.677566 
242.724396 156.356003 -31.350050 0.213749 0.707327 0.673796 
241.268494 155.662994 -30.124069 0.214982 0.707084 0.673658 
244.293900 157.021393 -32.545670 0.215086 0.709951 0.670602 
245.917892 157.684906 -33.722889 0.216872 0.710485 0.669461 
247.678696 158.389404 -34.958328 0.220371 0.713252 0.665363 
118.262604 176.304306 -56.667500 -0.353677 0.727101 0.588419 
119.099297 175.501205 -54.933060 -0.341772 0.728928 0.593174 
120.089600 174.653107 -53.130451 -0.333647 0.730134 0.596309 
118.159302 169.853104 -48.605148 -0.373383 0.698788 0.610147 
118.942596 171.283707 -49.676170 -0.355294 0.708250 0.610040 
117.653397 168.429504 -47.376091 -0.388094 0.691973 0.608733 
117.532097 167.207596 -45.957111 -0.408818 0.685586 0.602362 
117.752403 166.117294 -44.541439 -0.428004 0.683501 0.591302 
118.234200 165.179901 -43.014622 -0.429210 0.688583 0.584494 
118.939598 164.362793 -41.451248 -0.434644 0.689123 0.579822 
119.803299 163.717300 -39.878910 -0.430289 0.693142 0.578278 
120.760902 163.116196 -38.430012 -0.419960 0.698505 0.579418 
121.797699 162.506805 -37.036598 -0.407671 0.702502 0.583348 
122.855003 161.879898 -35.623711 -0.397912 0.706618 0.585113 
123.877403 161.235596 -34.174858 -0.387446 0.707076 0.591549 
123.516296 159.235703 -32.126301 -0.411043 0.689887 0.595903 
124.899902 160.571198 -32.705181 -0.381115 0.708546 0.593897 
121.778397 157.708206 -31.640560 0.444293 -0.667619 -0.597401 
120.692200 155.845200 -30.388760 -0.468878 0.650686 0.597295 
119.631401 154.226196 -29.440571 -0.489429 0.637222 0.595321 
118.564301 152.645294 -28.616341 -0.509736 0.623114 0.593210 
117.471802 151.037598 -27.911180 -0.523730 0.614139 0.590373 
116.291199 149.495895 -27.386150 -0.541899 0.604059 0.584344 
115.001602 148.100204 -27.233049 -0.560505 0.593344 0.577735 
120.010902 172.692093 -50.773918 -0.334547 0.725476 0.601468 
121.523399 173.993607 -51.543030 -0.315655 0.739859 0.594114 
165.039001 56.939331 44.350060 -0.138710 0.301139 0.943438 
166.739304 58.139912 44.118099 -0.128684 0.304946 0.943636 
168.390305 59.339600 43.816792 -0.115650 0.308716 0.944097 
171.282898 59.208710 44.175400 -0.091135 0.313071 0.945347 
169.997498 60.593849 43.540699 -0.103536 0.310698 0.944853 
172.585297 57.859261 44.871269 -0.085042 0.317288 0.944508 
173.900299 56.536480 45.541168 -0.074143 0.326948 0.942130 
175.306000 55.272190 46.183689 -0.062712 0.333474 0.940671 
176.889297 54.199532 46.806171 -0.048175 0.341610 0.938606 
113.196602 125.458099 -10.256200 0.528445 -0.435454 -0.728784 
114.545303 124.596100 -8.826727 0.515398 -0.430289 -0.741092 
115.680702 123.324699 -7.386231 -0.506328 0.426735 0.749352 
116.749901 122.090897 -6.076907 -0.494910 0.425765 0.757488 
117.844498 120.876999 -4.792317 -0.486038 0.431439 0.760018 
117.725502 118.203102 -3.372827 -0.491324 0.440939 0.751115 
118.936798 119.746399 -3.511926 -0.481230 0.440488 0.757884 
116.541199 116.606003 -3.235345 -0.499222 0.440779 0.745983 
115.335701 115.001999 -3.077566 -0.506996 0.439861 0.741267 
114.115700 113.415604 -2.937249 -0.516579 0.438727 0.735299 
112.896896 111.822098 -2.823861 -0.523780 0.439226 0.729887 
111.692497 110.218803 -2.723524 -0.530564 0.438901 0.725168 
110.489403 108.641403 -2.622077 -0.540551 0.434115 0.720658 
109.296303 107.076302 -2.563563 -0.547337 0.435638 0.714592 
108.070602 105.544998 -2.552341 -0.555059 0.432769 0.710367 
114.177299 127.497597 -10.767110 0.524239 -0.445108 -0.725984 
116.061096 126.986801 -9.121020 -0.507360 0.438731 0.741688 
117.077698 125.051300 -7.389816 -0.494651 0.429277 0.755673 
118.076103 123.628403 -6.042409 -0.482528 0.429396 0.763404 
119.084396 122.391403 -4.803674 -0.475233 0.432454 0.766249 
120.164597 121.232498 -3.576191 -0.471138 0.438006 0.765624 
120.036400 118.693604 -2.221522 -0.475260 0.447894 0.757310 
121.254898 120.160004 -2.341771 -0.464959 0.448589 0.763270 
118.831299 117.162201 -2.085448 -0.485382 0.451199 0.748882 
117.615097 115.616798 -1.906944 -0.494367 0.447964 0.744936 
116.406097 114.052902 -1.754854 -0.503020 0.446607 0.739942 
115.182899 112.478798 -1.628475 -0.510334 0.444795 0.736014 
113.957802 110.906502 -1.510343 -0.519611 0.442073 0.731147 
112.737000 109.327400 -1.407525 -0.524205 0.438797 0.729840 
111.518799 107.757698 -1.318852 -0.530326 0.438125 0.725811 
110.306099 106.204803 -1.255040 -0.537188 0.435815 0.722146 
109.095398 104.674797 -1.229400 -0.545168 0.431163 0.718951 
107.899101 103.135201 -1.191361 -0.555194 0.425727 0.714504 
106.947502 101.506699 -0.939462 -0.562281 0.417527 0.713801 
106.275497 100.048302 -0.594709 -0.567608 0.406072 0.716189 
106.092102 98.596901 0.112134 -0.567716 0.396528 0.721432 
106.102600 96.995522 0.990069 -0.568682 0.388125 0.725231 
106.109703 95.226143 1.942548 -0.569562 0.373984 0.731939 
106.059998 93.299156 2.827489 -0.573136 0.359019 0.736628 
105.928802 91.315140 3.601841 -0.574405 0.350106 0.739922 
105.794701 89.293457 4.360321 -0.578834 0.338557 0.741843 
105.688499 87.243073 5.136374 -0.581702 0.331188 0.742925 
105.702003 84.891808 6.153420 0.581858 -0.325091 -0.745492 
104.789398 82.654991 6.398669 -0.589914 0.318429 0.742027 
104.285004 80.843781 6.783466 -0.591570 0.315638 0.741901 
103.955803 79.095749 7.274205 -0.596668 0.310309 0.740065 
103.675400 77.368584 7.798844 -0.599916 0.303849 0.740119 
103.384102 75.683456 8.267310 -0.606343 0.297184 0.737584 
103.059799 74.121292 8.658476 -0.611909 0.287690 0.736751 
102.800301 72.954147 8.924981 -0.617369 0.276525 0.736471 
103.503197 72.331001 9.770912 -0.616611 0.277547 0.736721 
104.750603 71.345657 11.199810 0.612655 -0.278097 -0.739808 
104.913696 69.188957 12.187840 0.620850 -0.258602 -0.740048 
105.114700 67.314056 13.030730 -0.630712 0.238041 0.738606 
105.321098 65.572479 13.863290 -0.632952 0.225920 0.740494 
105.681503 63.890579 14.673370 -0.636759 0.209212 0.742138 
106.133698 62.292332 15.451780 -0.636385 0.200376 0.744891 
106.641502 60.722340 16.213900 -0.636422 0.190223 0.747518 
105.905296 58.283131 16.026699 -0.650466 0.166083 0.741155 
107.108597 59.155701 16.944630 -0.636795 0.176743 0.750503 
104.925102 57.833569 15.209450 -0.660381 0.154958 0.734769 
104.553902 56.491131 15.122690 -0.665990 0.143768 0.731976 
102.716797 55.766129 13.460850 -0.682669 0.120113 0.720789 
103.862099 54.823219 14.764140 -0.676238 0.126247 0.725785 
229.321198 111.380096 11.692300 0.368178 0.459914 0.808037 
228.430893 113.470802 10.904090 0.385259 0.467764 0.795470 
230.358093 119.546898 6.162166 0.373808 0.514586 0.771666 
229.713898 117.920502 7.500101 0.379929 0.499448 0.778592 
230.847107 121.111099 4.923394 0.370999 0.528381 0.763658 
231.239899 122.618202 3.684544 0.368910 0.536420 0.759052 
231.639801 123.941597 2.551967 0.360188 0.550020 0.753487 
231.981003 124.890503 1.709525 0.354274 0.559787 0.749085 
231.100998 125.827400 1.412008 0.365451 0.558607 0.744583 
229.972305 127.235298 0.933494 0.379053 0.564231 0.733459 
230.778198 129.211807 -1.099717 0.362052 0.583760 0.726734 
229.059006 128.896698 0.054975 0.381627 0.578297 0.721064 
232.446503 129.432297 -2.008430 0.343803 0.589827 0.730687 
233.965500 129.546707 -2.767694 0.316745 0.595269 0.738463 
235.043396 129.664398 -3.307940 0.305807 0.596695 0.741915 
235.208496 130.547394 -4.099133 0.300338 0.606803 0.735926 
235.461700 131.711197 -5.193812 0.297523 0.615968 0.729427 
235.850906 132.992996 -6.459460 0.292163 0.622073 0.726406 
236.322906 134.346405 -7.810696 0.283001 0.631294 0.722066 
236.817902 135.726898 -9.196462 0.277797 0.640240 0.716185 
237.297806 137.110306 -10.639980 0.270236 0.645797 0.714086 
237.744797 138.539703 -12.129210 0.264698 0.653777 0.708880 
238.050598 140.042496 -13.617950 0.261372 0.659886 0.704440 
238.081894 141.707901 -15.200050 0.255534 0.666089 0.700734 
237.585297 143.467896 -16.644341 0.253373 0.671118 0.696709 
238.934692 145.434998 -18.998720 0.239360 0.677808 0.695186 
236.986404 145.062195 -17.952431 0.246597 0.679455 0.691036 
240.570801 145.019699 -19.184210 0.233970 0.677615 0.697206 
212.257599 45.673069 49.746422 0.158773 0.447701 0.879974 
213.015106 46.948380 48.848980 0.159636 0.448206 0.879561 
213.810699 48.060139 48.042370 0.163026 0.448221 0.878931 
214.479095 48.895081 47.427940 0.163857 0.448706 0.878529 
213.933502 49.899040 47.001549 0.160557 0.450326 0.878310 
213.220795 51.351421 46.342941 0.157583 0.452742 0.877606 
212.783401 53.086159 45.501869 0.151415 0.458036 0.875943 
212.444595 54.818169 44.637581 0.149516 0.456773 0.876929 
212.105698 56.531799 43.775558 0.147304 0.454930 0.878260 
211.751099 58.229351 42.951649 0.145335 0.448378 0.881949 
211.382507 59.899738 42.157391 0.145010 0.438542 0.886935 
211.009094 61.564209 41.374420 0.150039 0.429610 0.890463 
210.674805 63.235909 40.645741 0.156429 0.421909 0.893041 
210.433701 64.890961 39.932838 0.162099 0.413467 0.895974 
210.342300 66.535782 39.237049 0.167928 0.404211 0.899119 
212.758896 68.076424 38.082512 -0.186097 -0.408446 -0.893610 
210.375793 68.213928 38.490059 0.178386 0.399041 0.899414 
214.690903 68.847527 37.311680 0.199711 0.415904 0.887209 
216.254593 69.634178 36.607639 0.208035 0.421323 0.882728 
217.661896 70.495598 35.832741 0.213427 0.424348 0.879987 
218.977005 71.545593 34.986141 0.221378 0.426755 0.876854 
220.060898 72.765633 34.070278 0.231317 0.427994 0.873678 
220.955597 74.006592 33.199520 0.238364 0.429521 0.871030 
221.729294 75.151749 32.403992 0.245617 0.427097 0.870207 
183.469101 52.961361 47.837940 -0.005540 0.374194 0.927334 
185.544907 52.718128 47.978951 0.004483 0.384002 0.923322 
187.603394 52.391399 48.170181 0.013855 0.393625 0.919167 
189.645706 51.984482 48.413681 0.028733 0.408949 0.912105 
191.667206 51.520031 48.630791 0.037327 0.420925 0.906327 
193.649994 51.079010 48.883911 0.047414 0.431670 0.900785 
195.613205 50.627258 49.076462 0.059501 0.441097 0.895485 
197.573395 50.187149 49.243690 0.069001 0.445006 0.892865 
199.510803 49.740662 49.374378 0.082007 0.452544 0.887963 
201.434692 49.284111 49.486679 0.092444 0.455265 0.885544 
203.329803 48.816269 49.565521 0.103502 0.456750 0.883554 
205.225098 48.326691 49.558090 0.111080 0.456610 0.882705 
207.113403 47.834148 49.529968 0.124640 0.457170 0.880602 
208.952499 47.204239 49.551579 0.137129 0.452041 0.881393 
210.664307 46.481640 49.649410 0.148627 0.447921 0.881633 
135.246002 57.554249 35.232811 -0.387537 0.262381 0.883726 
137.722000 58.643421 35.959129 -0.365044 0.272914 0.890090 
136.134705 59.335850 35.064678 -0.379793 0.274116 0.883526 
139.225006 57.928230 36.840771 -0.351544 0.273585 0.895303 
141.939697 58.174931 37.829979 -0.328314 0.278429 0.902600 
144.139893 57.865589 38.807308 -0.309336 0.282614 0.907987 
146.087708 57.603039 39.561829 -0.290776 0.283810 0.913729 
152.863007 57.752838 41.559540 -0.238059 0.292862 0.926045 
154.528397 58.449421 41.711800 -0.224682 0.293389 0.929215 
156.358002 59.184319 41.857250 -0.209656 0.298760 0.931014 
158.199005 59.955399 41.983730 -0.196953 0.298665 0.933814 
159.996307 60.793011 42.016640 -0.182035 0.301141 0.936044 
162.714905 60.071960 42.752979 -0.156047 0.304375 0.939683 
161.731705 61.690781 42.004200 -0.167116 0.300785 0.938936 
163.816299 58.485111 43.544201 -0.148813 0.300459 0.942114 
114.895798 129.729401 -11.627990 -0.520584 0.462458 0.717722 
116.539398 129.553604 -10.332730 -0.506657 0.454066 0.732886 
119.431000 124.965897 -5.929126 -0.473432 0.431725 0.767773 
118.687698 126.379898 -7.130670 -0.480793 0.436756 0.760317 
120.387497 123.737900 -4.762519 -0.466078 0.434948 0.770449 
121.433601 122.615997 -3.600794 -0.459956 0.439070 0.771788 
122.489304 121.584396 -2.411084 -0.454587 0.447718 0.769999 
122.346199 119.171204 -1.089195 -0.461920 0.457812 0.759631 
123.555000 120.593102 -1.227630 -0.452840 0.455935 0.766198 
121.136398 117.705002 -0.936392 -0.473998 0.456602 0.752888 
119.921303 116.194199 -0.772049 -0.484398 0.456297 0.746426 
118.693901 114.671600 -0.592691 -0.493008 0.454471 0.741889 
117.480003 113.122704 -0.448187 -0.500846 0.449761 0.739506 
116.249397 111.561600 -0.313502 -0.508721 0.446626 0.736022 
115.018097 109.990097 -0.203996 -0.513093 0.444808 0.734085 
113.785599 108.415802 -0.105886 -0.518819 0.440759 0.732501 
112.555099 106.844299 -0.022658 -0.523030 0.438304 0.730979 
111.329597 105.290199 0.047517 -0.529776 0.433192 0.729166 
110.126900 103.768898 0.094705 -0.536550 0.428072 0.727233 
108.994003 102.292702 0.139568 -0.545925 0.420477 0.724683 
107.972900 100.943199 0.169608 -0.553970 0.414628 0.721942 
107.672501 97.566582 1.894208 -0.556471 0.391972 0.732597 
107.403999 99.013939 0.879888 -0.557859 0.401554 0.726325 
107.871597 95.788681 3.007783 0.557554 -0.381462 -0.737306 
107.754097 93.728111 3.927063 -0.561558 0.366784 0.741702 
107.593597 91.713882 4.715880 -0.567715 0.353834 0.743305 
107.444901 89.698822 5.463236 -0.569904 0.345231 0.745671 
107.363197 87.768646 6.222646 -0.571987 0.338966 0.746950 
107.456596 86.056343 7.032151 -0.574381 0.331366 0.748520 
105.617203 80.723198 7.903378 -0.586517 0.317644 0.745050 
106.018997 82.224297 7.566263 -0.584419 0.320332 0.745548 
105.364098 79.093971 8.407175 -0.589776 0.314506 0.743808 
105.120598 77.391647 8.950805 -0.595610 0.306627 0.742448 
104.784798 75.644020 9.436019 -0.599461 0.301617 0.741400 
104.251404 73.920563 9.721510 -0.608724 0.290622 0.738237 
106.922302 83.616631 7.676501 -0.579953 0.323235 0.747779 
108.159103 84.813362 8.116618 -0.571256 0.330148 0.751445 
105.163399 54.078892 16.135900 -0.662802 0.126164 0.738089 
106.450897 53.145920 17.498810 -0.653653 0.127117 0.746042 
107.697403 52.302582 18.753889 -0.644544 0.133646 0.752796 
120.457001 56.347729 27.473921 -0.521763 0.225118 0.822852 
237.688507 146.785599 -19.876560 0.238469 0.684674 0.688734 
237.328903 148.380798 -21.319929 0.235749 0.689505 0.684840 
236.931595 147.628098 -20.431570 0.238280 0.687400 0.686079 
237.863098 149.436493 -22.576151 0.228743 0.692984 0.683703 
238.534897 150.588806 -23.979830 0.227344 0.694390 0.682742 
239.405396 151.711594 -25.426781 0.224600 0.696075 0.681934 
240.417206 152.769608 -26.858540 0.219731 0.699445 0.680070 
241.481201 153.751205 -28.235630 0.219012 0.699094 0.680662 
120.791298 176.408005 -55.400639 -0.324823 0.741929 0.586542 
121.832603 175.677505 -53.714890 -0.312193 0.747283 0.586604 
123.022301 175.086700 -52.158112 -0.298457 0.752631 0.586915 
122.955101 173.449295 -50.140369 -0.301404 0.748772 0.590335 
124.358704 174.518005 -50.789612 -0.281243 0.760924 0.584720 
121.662804 172.290207 -49.398071 -0.318236 0.736147 0.597340 
120.586800 171.064499 -48.544102 -0.338315 0.723143 0.602169 
119.746902 169.830200 -47.615559 -0.353658 0.718051 0.599440 
119.173599 168.625397 -46.579651 -0.380401 0.706312 0.597008 
118.877899 167.639496 -45.528461 -0.394630 0.700831 0.594225 
119.152199 166.839096 -44.356060 -0.404123 0.700737 0.587921 
119.661797 166.086197 -43.009892 -0.404201 0.705831 0.581742 
120.346199 165.412598 -41.622398 -0.400733 0.708490 0.580909 
121.179100 164.755295 -40.236118 -0.399308 0.713376 0.575889 
122.122101 164.144394 -38.851082 -0.388338 0.716979 0.578908 
123.121300 163.561401 -37.484440 -0.374137 0.723309 0.580384 
124.139297 162.975006 -36.109379 -0.367129 0.723959 0.584037 
125.165703 162.396194 -34.733620 -0.358907 0.725428 0.587316 
126.246002 161.828796 -33.364891 -0.351191 0.727696 0.589172 
126.040001 159.949600 -31.239740 -0.367932 0.711507 0.598652 
127.366997 161.240799 -31.968870 -0.336265 0.731707 0.592901 
124.678596 158.594299 -30.564791 -0.392250 0.695277 0.602271 
123.264397 157.114899 -29.875380 -0.421366 0.675751 0.604823 
122.033897 155.483505 -28.969980 -0.447795 0.658224 0.605162 
120.876999 153.875504 -28.073370 -0.469728 0.647070 0.600546 
119.736702 152.241592 -27.242350 -0.491903 0.631250 0.599629 
118.566299 150.609406 -26.514351 -0.514774 0.617571 0.594655 
117.218102 148.798996 -25.848190 -0.528730 0.607761 0.592513 
115.634598 147.185303 -25.662201 -0.549555 0.593929 0.587569 
239.982895 154.815002 -28.795620 0.216365 0.706307 0.674030 
239.998596 156.850494 -30.899981 0.212965 0.711408 0.669734 
238.608704 156.018600 -29.552320 0.213798 0.711848 0.669001 
241.477600 157.592102 -32.206478 0.210834 0.710635 0.671228 
243.019196 158.303207 -33.457642 0.212450 0.712972 0.668233 
244.604797 158.987701 -34.723850 0.213759 0.714388 0.666301 
246.192596 159.735397 -35.982380 0.217120 0.715381 0.664146 
247.753494 160.577103 -37.376770 0.221303 0.717638 0.660319 
248.884903 161.698807 -38.965279 0.224837 0.721750 0.654619 
118.170799 128.125595 -8.398295 -0.485964 0.443692 0.752979 
118.287598 130.181793 -9.512923 -0.491128 0.458141 0.740878 
116.408798 146.162994 -23.941330 -0.540540 0.592526 0.597268 
117.033203 144.977707 -22.156691 -0.528613 0.588200 0.612037 
116.491997 142.679703 -20.456619 -0.537249 0.569107 0.622479 
117.642197 144.012894 -20.638809 -0.520584 0.584173 0.622683 
115.312500 141.077499 -20.067430 -0.546472 0.557886 0.624605 
230.118103 124.899101 2.636478 0.378536 0.547673 0.746166 
228.173599 126.354797 2.564963 0.402852 0.549266 0.732132 
227.297501 128.451996 1.338610 0.401159 0.568005 0.718639 
228.205795 130.586899 -0.941186 0.387134 0.586919 0.711093 
226.508804 130.232697 0.342658 0.402311 0.586548 0.702928 
230.031403 130.956299 -2.190977 0.364909 0.594808 0.716272 
231.961700 130.969193 -3.069645 0.342252 0.600158 0.722962 
233.672302 130.826904 -3.695620 0.323062 0.603046 0.729361 
233.976807 133.617706 -6.181182 0.310674 0.621489 0.719189 
233.712799 132.202103 -4.865877 0.318897 0.611541 0.724101 
234.422302 135.002304 -7.575918 0.306090 0.629484 0.714184 
234.920700 136.384705 -8.975713 0.297539 0.637849 0.710365 
235.397202 137.738205 -10.394140 0.288021 0.644048 0.708694 
235.820206 139.087204 -11.824400 0.281949 0.654089 0.701906 
236.041397 140.477798 -13.205940 0.277066 0.659838 0.698461 
235.968201 141.934998 -14.572540 0.269859 0.667314 0.694167 
235.585800 143.467499 -15.906160 0.266507 0.672570 0.690380 
235.076202 145.014008 -17.206690 0.258480 0.682067 0.684086 
236.247406 146.523605 -19.093781 0.246164 0.683559 0.687132 
234.553299 146.489594 -18.438110 0.253064 0.688055 0.680103 
228.686996 116.372803 8.966934 0.391953 0.484178 0.782269 
227.144302 115.317902 10.442380 0.406519 0.469029 0.784063 
133.613800 58.144371 34.300259 -0.402205 0.264139 0.876619 
134.522705 59.973629 34.160912 -0.394408 0.271035 0.878056 
137.054703 61.116611 34.888691 -0.372445 0.281190 0.884430 
135.418503 61.806229 34.004089 -0.385293 0.282377 0.878529 
138.685806 60.352139 35.808460 -0.358925 0.281571 0.889883 
140.289398 59.461922 36.742680 -0.343122 0.281951 0.895975 
131.986298 58.748821 33.362942 -0.416501 0.263015 0.870259 
132.927704 60.600639 33.241989 -0.407232 0.270014 0.872499 
133.797394 62.449150 33.087730 -0.399003 0.281181 0.872773 
136.293106 63.642029 33.787090 -0.377570 0.286966 0.880393 
134.650208 64.296577 32.916672 -0.392904 0.290609 0.872452 
137.946106 62.939739 34.676849 -0.364747 0.290551 0.884613 
139.599396 62.163319 35.563339 -0.349573 0.286658 0.891978 
141.229507 61.304840 36.478699 -0.335589 0.288832 0.896636 
142.893997 60.420029 37.428211 -0.320909 0.287097 0.902548 
144.760803 59.878239 38.290520 -0.304318 0.289738 0.907437 
106.081497 56.260849 16.577999 -0.653307 0.147856 0.742515 
107.288002 54.883339 17.918640 -0.645273 0.146259 0.749821 
108.451599 53.943821 19.086809 -0.634092 0.149771 0.758614 
109.710999 53.302292 20.303900 -0.623968 0.158638 0.765178 
117.293602 55.341679 25.618040 -0.547640 0.218032 0.807807 
118.442802 56.407829 26.164610 -0.537653 0.223454 0.813018 
119.530296 57.650261 26.558210 -0.529867 0.229916 0.816321 
121.676498 57.602371 27.951599 -0.514029 0.236864 0.824421 
120.671097 58.920120 26.961639 -0.521289 0.241016 0.818639 
122.623001 56.271358 28.881689 -0.506097 0.232449 0.830562 
123.438301 176.596802 -54.212830 -0.293355 0.758691 0.581662 
124.562302 176.064194 -52.733639 -0.281164 0.762028 0.583318 
125.814301 175.532700 -51.400650 -0.267834 0.768108 0.581614 
125.711304 173.962494 -49.443790 -0.267812 0.767146 0.582893 
127.089600 174.959000 -50.102779 -0.253191 0.774291 0.579972 
124.379601 172.916901 -48.798019 -0.286007 0.756352 0.588330 
123.139397 171.844894 -48.097351 -0.304727 0.747163 0.590668 
122.053596 170.713806 -47.356602 -0.317017 0.741491 0.591347 
121.116501 169.637100 -46.557388 -0.347586 0.729283 0.589347 
120.364304 168.658493 -45.804298 -0.363459 0.718630 0.592848 
119.851997 167.930603 -45.228420 -0.373616 0.715604 0.590187 
120.322502 167.493393 -44.361462 -0.376983 0.717618 0.585584 
120.958801 166.942596 -43.207512 -0.375818 0.718274 0.585529 
121.700203 166.348099 -41.968220 -0.368214 0.725839 0.581013 
122.575401 165.702606 -40.679798 -0.364887 0.729128 0.578991 
123.516502 165.118103 -39.309761 -0.353608 0.735824 0.577516 
124.471802 164.569794 -37.953861 -0.344352 0.741896 0.575336 
125.436096 164.020706 -36.629082 -0.338266 0.743852 0.576421 
126.451103 163.506897 -35.337078 -0.331189 0.745432 0.578486 
127.556099 163.018494 -34.068199 -0.322180 0.747422 0.580999 
128.678696 162.490402 -32.747211 -0.308673 0.750503 0.584351 
128.510101 160.656693 -30.568850 -0.326538 0.731257 0.598863 
129.788895 161.881500 -31.402340 -0.301616 0.749980 0.588691 
127.232201 159.372803 -29.780220 -0.352531 0.713707 0.605264 
125.925797 158.013702 -29.059160 -0.376908 0.697452 0.609509 
124.590202 156.587799 -28.362970 -0.403497 0.680983 0.611108 
123.317200 155.074997 -27.577431 -0.427718 0.665301 0.611908 
122.127502 153.532303 -26.723721 -0.449215 0.654111 0.608559 
120.998596 151.949600 -25.912930 -0.471724 0.639370 0.607192 
119.804001 150.262497 -25.091961 -0.497194 0.623388 0.603478 
118.508202 148.038605 -23.963720 -0.512771 0.608894 0.605239 
165.529602 59.612930 43.350239 -0.137691 0.301695 0.943409 
167.171494 60.773830 43.137661 -0.124250 0.306373 0.943768 
168.757294 61.974430 42.893681 -0.112367 0.309903 0.944105 
171.573303 61.862869 43.236698 -0.092249 0.313283 0.945169 
170.291595 63.216061 42.627159 -0.103395 0.309990 0.945101 
172.879501 60.510471 43.841549 -0.082002 0.316860 0.944921 
174.182999 59.162991 44.459148 -0.069773 0.321923 0.944192 
175.444397 57.851601 45.088699 -0.060635 0.327667 0.942846 
176.712006 56.624668 45.672218 -0.054598 0.333969 0.941001 
178.009399 55.612808 46.218369 -0.041295 0.341814 0.938860 
179.684402 55.113350 46.550041 -0.032179 0.351334 0.935697 
181.690201 54.968979 46.673618 -0.016580 0.358328 0.933449 
183.766495 54.823860 46.791641 -0.007113 0.366507 0.930388 
185.875397 54.609509 46.942768 0.006420 0.375580 0.926768 
187.994507 54.242409 47.077049 0.018533 0.391849 0.919843 
190.079605 53.729359 47.311008 0.029964 0.406481 0.913168 
192.117599 53.221031 47.578751 0.039637 0.418442 0.907378 
194.107605 52.716782 47.789829 0.050653 0.430842 0.901005 
196.087006 52.216209 47.965221 0.062880 0.443183 0.894223 
198.067001 51.749989 48.137089 0.073614 0.449116 0.890436 
200.017593 51.301231 48.278858 0.083948 0.450404 0.888869 
201.948502 50.823669 48.372269 0.095507 0.456660 0.884500 
203.869797 50.337990 48.444012 0.105946 0.458676 0.882265 
205.830505 49.874271 48.430302 0.115790 0.458250 0.881249 
207.789001 49.422020 48.469040 0.127873 0.457679 0.879874 
209.782501 48.806511 48.486992 0.141455 0.455812 0.878764 
211.515396 47.864971 48.710522 0.151549 0.451377 0.879370 
212.568695 49.097301 47.772751 0.154106 0.451743 0.878738 
210.921204 50.651630 47.211231 0.146139 0.457079 0.877338 
210.676498 52.805470 46.020538 0.142032 0.458114 0.877473 
210.428604 54.632141 45.060871 0.140040 0.459005 0.877328 
210.099396 56.366310 44.188751 0.134239 0.456293 0.879646 
209.756500 58.071121 43.339512 0.135229 0.448442 0.883523 
209.403198 59.761990 42.529789 0.137970 0.436324 0.889149 
209.047607 61.452980 41.736179 0.142674 0.426454 0.893186 
208.733597 63.165680 41.004330 0.145811 0.416462 0.897384 
208.501694 64.869553 40.280251 0.154421 0.406046 0.900711 
208.394302 66.566254 39.570930 0.161831 0.397020 0.903430 
208.311493 68.273743 38.852390 0.174466 0.390113 0.904087 
210.170303 69.958969 37.775700 0.189338 0.390483 0.900930 
208.214905 69.990189 38.156349 0.183816 0.381787 0.905787 
212.082596 69.960068 37.392632 0.197312 0.401276 0.894453 
213.725403 70.250519 36.897320 0.205159 0.407629 0.889803 
215.037003 70.972740 36.278690 0.211948 0.411699 0.886331 
216.319199 71.804543 35.551079 0.223231 0.413129 0.882888 
217.539398 72.781250 34.774220 0.230248 0.417426 0.879057 
218.559006 73.919151 33.923889 0.238573 0.417070 0.877004 
219.513000 75.109451 33.059292 0.245618 0.417491 0.874856 
220.514694 76.232872 32.209080 0.249977 0.417378 0.873674 
221.035995 78.350639 31.010710 0.264267 0.412679 0.871699 
221.736099 76.959641 31.492371 0.255505 0.418672 0.871454 
220.603500 79.917778 30.406410 0.274642 0.402490 0.873255 
220.182693 81.401756 29.851910 0.286150 0.392985 0.873889 
219.507095 82.860573 29.387791 0.297767 0.384662 0.873710 
218.655106 84.332314 29.059099 0.311241 0.375261 0.873103 
217.701996 85.823349 28.780149 0.325466 0.359144 0.874693 
216.728500 87.365410 28.576380 0.341646 0.346909 0.873460 
217.151993 89.580933 27.547810 0.355750 0.348401 0.867213 
215.743393 88.926819 28.392750 0.352993 0.338524 0.872237 
218.555603 90.197433 26.706289 0.357346 0.355162 0.863808 
219.918106 90.777367 25.880421 0.356496 0.361318 0.861603 
221.149506 91.427383 25.098980 0.356645 0.365848 0.859628 
222.100800 92.207603 24.377470 0.356850 0.370307 0.857631 
222.662094 93.317451 23.671631 0.358943 0.376614 0.854003 
223.069305 94.705513 22.886971 0.365964 0.378375 0.850237 
223.420700 96.246437 22.050980 0.368727 0.380831 0.847944 
223.802094 97.834976 21.155439 0.369648 0.387422 0.844550 
224.253998 99.485001 20.194260 0.371834 0.392363 0.841303 
224.977493 100.819801 19.232880 0.372168 0.399835 0.837629 
225.579193 101.696999 18.539101 0.373646 0.403787 0.835072 
225.063004 102.789902 18.253590 0.376997 0.404193 0.833368 
224.399094 104.323700 17.799170 0.391382 0.402533 0.827519 
223.731293 106.052399 17.318340 0.396839 0.406424 0.823006 
223.031296 107.821404 16.831289 0.407272 0.407810 0.817203 
223.938400 110.081398 15.195900 0.411149 0.426820 0.805469 
222.281601 109.596199 16.339239 0.414025 0.413893 0.810725 
225.657196 110.543198 14.025330 0.400215 0.434816 0.806699 
227.433502 110.978203 12.816500 0.384980 0.447518 0.807167 
109.257004 98.616371 2.496562 -0.546058 0.401772 0.735119 
108.647903 99.946083 1.264393 -0.547206 0.408753 0.730402 
110.031898 96.659027 4.114712 0.539626 -0.392895 -0.744605 
109.533096 94.041100 5.102086 -0.548464 0.374027 0.747857 
109.256203 91.898872 5.853099 -0.556389 0.359365 0.749192 
109.043602 89.910851 6.587510 -0.561281 0.346931 0.751400 
108.880501 88.065407 7.245572 -0.564671 0.340788 0.751672 
108.570000 86.690598 7.618622 -0.570350 0.336411 0.749352 
109.392097 85.949661 8.573258 -0.564002 0.335547 0.754526 
108.895599 83.587509 9.220276 -0.570524 0.326038 0.753791 
110.194397 84.700569 9.735590 -0.559842 0.332627 0.758905 
107.705200 82.611191 8.725621 -0.575439 0.323228 0.751261 
106.846001 81.860107 8.381488 -0.582152 0.320422 0.747281 
106.819504 80.740227 8.845295 -0.581232 0.320238 0.748075 
106.777496 79.233139 9.466054 -0.583604 0.317262 0.747496 
106.639198 77.507790 10.097400 -0.585877 0.313956 0.747114 
106.278099 75.666656 10.603380 -0.590957 0.306228 0.746321 
105.685997 73.692307 10.989060 -0.599959 0.296393 0.743102 
108.079697 81.288361 9.589510 -0.575563 0.323687 0.750969 
108.260902 79.693977 10.422130 -0.576780 0.321220 0.751094 
108.233902 77.906990 11.177170 0.576743 -0.320545 -0.751411 
107.983902 75.877113 11.857030 0.582008 -0.313963 -0.750129 
107.359901 73.813400 12.252730 -0.588391 0.303285 0.749543 
106.782997 71.805901 12.642090 -0.598265 0.290077 0.746950 
106.613098 69.887978 13.293740 -0.607818 0.275715 0.744674 
106.678001 68.064293 14.066920 -0.612737 0.257334 0.747216 
106.841103 66.351021 14.869300 -0.617359 0.238652 0.749608 
107.137604 64.714828 15.657530 -0.623378 0.224318 0.749054 
107.528801 63.137699 16.455111 -0.626346 0.208167 0.751237 
107.972801 61.578381 17.188641 -0.623277 0.204212 0.754866 
108.362900 60.029869 17.864599 -0.623494 0.195348 0.757030 
107.554001 57.590439 17.645370 -0.638019 0.170225 0.750970 
108.756104 58.549141 18.517050 -0.622964 0.188793 0.759127 
118.712898 146.278000 -21.984650 -0.507739 0.600086 0.618141 
119.046997 145.004700 -20.391840 -0.504006 0.595141 0.625927 
118.170303 143.319000 -19.567450 -0.514540 0.581548 0.630120 
119.371597 143.811798 -19.046820 -0.500837 0.582644 0.640069 
117.533203 142.089798 -19.033850 -0.521853 0.567961 0.636466 
116.510300 140.530807 -18.499269 -0.533337 0.551791 0.641154 
146.649002 59.527439 39.053650 -0.288861 0.293173 0.911377 
148.445496 59.225410 39.743031 -0.275380 0.291259 0.916152 
150.041595 58.831280 40.357479 -0.260111 0.293637 0.919848 
151.197693 58.471691 40.815681 -0.251656 0.294940 0.921781 
152.197800 59.260391 40.824829 -0.243459 0.295735 0.923726 
153.683807 60.273762 40.839561 -0.232985 0.297484 0.925862 
155.524307 61.086819 40.982620 -0.217044 0.299609 0.929046 
157.362396 61.810181 41.116650 -0.201317 0.301187 0.932072 
159.155197 62.552368 41.221970 -0.188635 0.301916 0.934486 
160.862000 63.337151 41.256229 -0.176137 0.302168 0.936840 
163.390503 62.649891 41.942612 -0.156216 0.303178 0.940043 
162.471802 64.188599 41.248989 -0.165144 0.305157 0.937873 
164.410797 61.134548 42.638248 -0.143805 0.302064 0.942379 
226.537796 112.871101 12.261990 0.404029 0.450924 0.795882 
225.500504 114.661598 11.768310 0.417610 0.459181 0.784063 
225.851898 116.949699 10.142450 0.422355 0.473085 0.773180 
224.401505 116.352898 11.400650 0.428990 0.462130 0.776147 
227.142303 117.821098 8.873422 0.416052 0.484402 0.769581 
228.014999 119.092598 7.627608 0.408164 0.494705 0.767248 
228.621994 120.506401 6.391705 0.399041 0.512934 0.760043 
229.072403 122.016296 5.166541 0.393276 0.525384 0.754523 
229.535202 123.491501 3.927302 0.390556 0.537273 0.747532 
238.770203 153.854294 -27.378611 0.219663 0.703399 0.676001 
237.149094 155.071106 -28.072849 0.214597 0.708097 0.672716 
237.305206 157.283905 -30.442329 0.208419 0.716842 0.665356 
235.844894 156.477798 -29.108271 0.210681 0.714998 0.666627 
238.743607 158.088104 -31.782810 0.206232 0.718037 0.664749 
240.203400 158.842194 -33.084332 0.207895 0.716281 0.666124 
241.686493 159.546997 -34.369339 0.209774 0.717216 0.664528 
243.191605 160.239700 -35.644970 0.211155 0.717272 0.664029 
244.681900 160.955994 -36.908199 0.213356 0.719140 0.661299 
246.048294 161.747299 -38.195271 0.217691 0.719304 0.659706 
235.775208 147.712006 -20.098209 0.241281 0.690200 0.682208 
235.838196 148.882004 -21.283319 0.234816 0.691837 0.682805 
236.194107 150.076599 -22.617630 0.231424 0.695565 0.680171 
236.757996 151.376495 -24.140120 0.225391 0.698528 0.679160 
237.566101 152.722794 -25.795660 -0.222639 -0.699124 -0.679454 
126.463997 57.173641 30.897530 -0.469609 0.242723 0.848854 
129.307907 57.643379 32.325588 -0.443789 0.248619 0.860953 
127.882401 58.795712 31.216061 -0.457191 0.252892 0.852656 
223.802094 102.081001 19.169979 0.383774 0.397298 0.833590 
222.927994 103.757401 18.807989 0.393440 0.398407 0.828539 
222.163498 105.504898 18.367910 0.399910 0.398329 0.825473 
221.420395 107.280800 17.897440 0.405949 0.401954 0.820755 
220.649506 109.053101 17.442881 0.409906 0.403582 0.817985 
221.454498 111.374298 15.856170 0.419003 0.415547 0.807315 
219.807404 110.825699 16.979429 0.412592 0.409660 0.813600 
223.115997 111.882797 14.688700 0.420299 0.427483 0.800379 
224.805801 112.373497 13.507720 0.414103 0.437531 0.798176 
127.255402 176.514206 -52.033428 -0.253374 0.777360 0.575771 
128.461502 175.924805 -50.793301 -0.241089 0.781533 0.575398 
128.390106 174.325607 -48.842709 -0.240832 0.778302 0.579867 
129.721802 175.298904 -49.560322 -0.227205 0.786367 0.574460 
127.043198 173.377106 -48.136230 -0.252881 0.774352 0.580027 
125.737801 172.367996 -47.491169 -0.271370 0.764911 0.584183 
124.482399 171.336105 -46.813900 -0.285802 0.760232 0.583408 
123.323997 170.269897 -46.104561 -0.307987 0.748407 0.587394 
122.257896 169.272598 -45.380821 -0.330832 0.739635 0.586081 
121.281998 168.331497 -44.777061 -0.356658 0.727733 0.585832 
169.754898 172.323502 -40.133831 0.024056 0.877790 0.478442 
167.152298 172.511993 -40.395199 0.006389 0.877376 0.479761 
168.370605 171.816299 -39.173920 0.015417 0.876356 0.481418 
165.938705 173.217804 -41.654209 0.000671 0.879864 0.475225 
166.025299 62.212212 42.475700 -0.133689 0.303612 0.943370 
167.572403 63.359509 42.276550 -0.123057 0.305307 0.944269 
169.043701 64.582352 42.047531 -0.112850 0.306082 0.945293 
171.791901 64.501801 42.357460 -0.091580 0.307616 0.947093 
170.473007 65.848373 41.776810 -0.103457 0.302809 0.947419 
173.132507 63.135052 42.910992 -0.082357 0.313726 0.945935 
174.485596 61.790730 43.515480 -0.070219 0.315868 0.946201 
175.828995 60.427639 44.077259 -0.059301 0.322364 0.944757 
177.031006 59.033192 44.687569 -0.051248 0.330978 0.942246 
178.011703 57.713100 45.273991 -0.039133 0.339562 0.939769 
178.700607 56.692959 45.756851 -0.036451 0.340027 0.939709 
180.006500 56.741619 45.782211 -0.027912 0.346620 0.937590 
181.848099 56.824348 45.818699 -0.017979 0.352288 0.935719 
183.984497 56.770531 45.848579 -0.005319 0.359104 0.933283 
186.160904 56.535889 45.921700 0.006881 0.373345 0.927667 
188.437607 56.197781 46.042011 0.019283 0.389244 0.920933 
190.646606 55.510448 46.319752 0.030950 0.401503 0.915335 
192.684494 54.896992 46.598999 0.043036 0.417575 0.907623 
194.624695 54.363560 46.788509 0.054164 0.429080 0.901641 
196.606094 53.860699 46.930599 0.063778 0.438669 0.896383 
198.584900 53.360031 47.054352 0.073067 0.446141 0.891975 
200.547302 52.904362 47.206539 0.087791 0.453906 0.886714 
202.489700 52.413601 47.290428 0.095434 0.455624 0.885042 
204.389297 51.909180 47.406921 0.104282 0.459690 0.881936 
206.292892 51.503101 47.403221 0.114615 0.460643 0.880154 
208.377701 51.119591 47.370209 0.127884 0.459021 0.879173 
231.762299 132.656601 -4.364111 0.337757 0.611733 0.715335 
232.085907 134.253204 -5.843952 0.328474 0.622182 0.710630 
232.560196 135.727493 -7.324502 0.319216 0.631302 0.706795 
233.053802 137.077896 -8.751996 0.310695 0.639444 0.703264 
233.535202 138.405396 -10.200840 0.304488 0.647284 0.698792 
233.982803 139.693298 -11.584590 0.294802 0.655776 0.695018 
234.281799 140.843307 -12.829470 0.287387 0.660523 0.693627 
234.074402 142.121094 -13.994020 0.279988 0.669277 0.688241 
233.678406 143.557495 -15.238440 0.271661 0.677019 0.683993 
233.191498 145.056595 -16.513479 0.265475 0.682919 0.680548 
232.710403 146.550705 -17.821989 0.256240 0.691332 0.675575 
234.178101 147.865204 -19.675920 0.244884 0.692191 0.678899 
232.360992 148.042404 -19.192671 0.248001 0.697269 0.672541 
109.450996 82.135757 10.286240 -0.568272 0.327777 0.754738 
109.801804 80.503159 11.256090 -0.567035 0.325010 0.756862 
110.021400 78.602310 12.230010 0.568516 -0.324485 -0.755976 
110.162598 76.222481 13.355570 0.570450 -0.319431 -0.756671 
109.015404 73.826317 13.543230 -0.579068 0.309943 0.754066 
108.360603 72.059410 13.780040 -0.586328 0.299971 0.752487 
108.242203 70.391182 14.368020 -0.594293 0.286282 0.751571 
108.251503 68.698883 15.064230 -0.599624 0.271498 0.752821 
108.389099 67.038589 15.845060 -0.602824 0.255300 0.755926 
108.650803 65.429527 16.636490 -0.607187 0.238589 0.757892 
109.009201 63.840641 17.417561 -0.606049 0.225362 0.762834 
109.371300 62.293362 18.193100 -0.608272 0.217093 0.763463 
109.727699 60.761730 18.828230 -0.610091 0.207063 0.764796 
110.021599 59.242241 19.389299 -0.608157 0.202867 0.767457 
109.195602 57.260071 19.123131 -0.623195 0.178860 0.761339 
110.278603 57.764099 19.869370 -0.610859 0.191540 0.768221 
108.275703 56.276211 18.507231 -0.633071 0.164293 0.756458 
130.449997 59.515350 32.343609 -0.432404 0.257534 0.864120 
131.392105 61.273998 32.322071 -0.421770 0.270430 0.865435 
132.185699 63.084518 32.163181 -0.416603 0.280308 0.864794 
133.038193 64.897369 31.985640 -0.405232 0.291603 0.866461 
135.499893 66.142418 32.673820 -0.383530 0.297593 0.874267 
133.880493 66.729279 31.774031 -0.397302 0.298952 0.867628 
137.154099 65.497749 33.528542 -0.369811 0.296893 0.880394 
138.826202 64.797150 34.401630 -0.354431 0.296163 0.886942 
140.487000 64.037537 35.283180 -0.341575 0.296977 0.891702 
142.109497 63.204948 36.170940 -0.327846 0.295086 0.897464 
143.720306 62.368858 37.035721 -0.310936 0.295499 0.903327 
145.503799 61.812038 37.844688 -0.297524 0.295555 0.907814 
147.353607 61.415298 38.608170 -0.283012 0.295000 0.912622 
149.156693 60.982430 39.318130 -0.269182 0.296989 0.916154 
150.910004 60.353642 40.070251 -0.254625 0.297525 0.920133 
152.305695 62.317009 39.738739 -0.244569 0.301102 0.921696 
154.692596 63.077782 40.070110 -0.225778 0.301349 0.926398 
