22.200001 1.750000 6.010000 -0.012763 -0.901005 -0.433620 
21.000000 1.170000 5.250000 -0.000369 -0.898577 -0.438816 
22.799999 1.220000 8.200000 -0.014539 -0.899001 -0.437704 
21.600000 0.848000 7.410000 -0.002387 -0.896318 -0.443405 
20.400000 0.258000 6.650000 0.006031 -0.895148 -0.445728 
19.799999 -0.670000 8.020000 0.016252 -0.889975 -0.455719 
36.900002 10.900000 -12.000000 -0.145957 -0.933968 -0.326191 
35.299999 10.900000 -10.800000 -0.126482 -0.931457 -0.341159 
36.599998 10.000000 -8.770000 -0.130856 -0.930507 -0.342102 
38.000000 10.100000 -9.970000 -0.146881 -0.932276 -0.330587 
33.799999 10.600000 -9.260000 -0.110869 -0.928826 -0.353540 
35.200001 9.750000 -7.400000 -0.116616 -0.927294 -0.355707 
32.599998 10.100000 -7.410000 -0.100692 -0.926101 -0.363590 
34.099998 9.350000 -5.840000 -0.107842 -0.925164 -0.363926 
31.600000 9.390000 -5.590000 -0.091322 -0.923971 -0.371400 
33.200001 8.880000 -4.300000 -0.100047 -0.923743 -0.369716 
30.900000 8.730000 -3.830000 -0.085249 -0.921521 -0.378856 
32.400002 8.320000 -2.630000 -0.093336 -0.921263 -0.377575 
30.200001 8.040000 -2.140000 -0.078636 -0.919919 -0.384143 
31.700001 7.700000 -1.080000 -0.088271 -0.919578 -0.382863 
40.799999 9.840000 -11.800000 -0.183688 -0.933878 -0.306807 
40.000000 10.500000 -13.600000 -0.187605 -0.935467 -0.299511 
38.500000 10.700000 -12.900000 -0.165806 -0.935251 -0.312753 
39.400002 9.980000 -11.000000 -0.165097 -0.933122 -0.319416 
39.400002 11.200000 -15.500000 -0.193335 -0.937501 -0.289332 
37.700001 11.500000 -15.000000 -0.171670 -0.937156 -0.303756 
39.000000 11.900000 -17.600000 -0.205180 -0.938017 -0.279331 
37.299999 12.200000 -17.200001 -0.181955 -0.939222 -0.291126 
38.700001 12.500000 -19.799999 -0.217113 -0.938705 -0.267757 
37.099998 12.800000 -19.500000 -0.197956 -0.939906 -0.278191 
38.599998 13.000000 -22.000000 -0.229135 -0.938902 -0.256827 
37.000000 13.500000 -21.900000 -0.209848 -0.940847 -0.266028 
35.299999 13.800000 -21.799999 -0.191623 -0.942517 -0.273758 
35.299999 13.200000 -19.200001 -0.176192 -0.940744 -0.289755 
33.500000 14.200000 -21.600000 -0.171658 -0.942548 -0.286595 
33.500000 13.400000 -18.900000 -0.154431 -0.940647 -0.302215 
31.600000 14.500000 -21.500000 -0.151977 -0.942355 -0.298110 
31.500000 13.700000 -18.700001 -0.132481 -0.939102 -0.317075 
29.600000 14.700000 -21.299999 -0.129540 -0.941548 -0.310978 
29.400000 13.800000 -18.600000 -0.111582 -0.937413 -0.329857 
27.500000 14.800000 -21.100000 -0.109840 -0.939587 -0.324208 
27.299999 13.900000 -18.500000 -0.093185 -0.935204 -0.341628 
50.599998 1.560000 3.170000 -0.237048 -0.906302 -0.349893 
51.500000 1.170000 3.230000 -0.240412 -0.907047 -0.345642 
51.500000 1.520000 2.350000 -0.244544 -0.907404 -0.341784 
50.799999 1.730000 2.510000 -0.240028 -0.906707 -0.346797 
52.700001 0.755000 3.200000 -0.245696 -0.907559 -0.340546 
52.500000 1.190000 2.160000 -0.249711 -0.907819 -0.336910 
53.900002 0.312000 3.080000 -0.254288 -0.909040 -0.330128 
53.599998 0.812000 1.940000 -0.257515 -0.908749 -0.328422 
55.200001 -0.174000 2.890000 -0.259993 -0.909269 -0.325013 
55.000000 0.353000 1.680000 -0.264607 -0.909436 -0.320794 
55.000000 2.310000 -4.200000 -0.304335 -0.908571 -0.286144 
55.700001 1.550000 -2.930000 -0.300801 -0.909091 -0.288222 
54.099998 3.070000 -5.490000 -0.309114 -0.908397 -0.281537 
53.299999 3.840000 -6.730000 -0.311552 -0.908272 -0.279246 
53.599998 2.700000 -3.550000 -0.292433 -0.909368 -0.295859 
54.400002 1.960000 -2.280000 -0.288478 -0.909717 -0.298655 
52.799999 3.430000 -4.780000 -0.297197 -0.908799 -0.292844 
51.900002 4.210000 -6.050000 -0.298812 -0.908854 -0.291027 
52.299999 3.070000 -2.940000 -0.275269 -0.909019 -0.312908 
53.099998 2.340000 -1.790000 -0.274559 -0.908979 -0.313648 
51.500000 3.810000 -4.170000 -0.282192 -0.908652 -0.307766 
50.599998 4.560000 -5.400000 -0.280458 -0.911388 -0.301191 
54.500000 0.974000 0.498000 -0.268751 -0.908912 -0.318829 
53.299999 1.350000 0.876000 -0.261251 -0.908828 -0.325236 
53.900002 1.640000 -0.628000 -0.271200 -0.908983 -0.316544 
52.599998 1.990000 -0.210000 -0.262893 -0.908797 -0.323999 
51.900002 2.670000 -1.280000 -0.265688 -0.908536 -0.322447 
51.099998 3.380000 -2.410000 -0.267018 -0.908786 -0.320638 
50.200001 4.120000 -3.570000 -0.265885 -0.909560 -0.319382 
49.299999 4.860000 -4.760000 -0.257291 -0.913805 -0.314264 
52.099998 1.710000 1.190000 -0.253038 -0.907936 -0.334101 
51.500000 2.300000 0.240000 -0.254540 -0.907573 -0.333947 
50.700001 2.950000 -0.765000 -0.254507 -0.907702 -0.333622 
49.900002 3.630000 -1.810000 -0.254438 -0.907300 -0.334767 
48.900002 4.360000 -2.940000 -0.246012 -0.911695 -0.329075 
48.000000 5.090000 -4.100000 -0.237885 -0.916083 -0.322804 
51.099998 1.970000 1.560000 -0.245950 -0.907093 -0.341601 
50.500000 2.520000 0.745000 -0.246049 -0.907081 -0.341561 
49.700001 3.140000 -0.152000 -0.245256 -0.906894 -0.342627 
48.799999 3.800000 -1.150000 -0.239307 -0.908898 -0.341521 
47.799999 4.520000 -2.210000 -0.228815 -0.913326 -0.336867 
46.799999 5.280000 -3.360000 -0.218849 -0.917266 -0.332758 
50.299999 2.090000 2.040000 -0.239033 -0.906682 -0.347549 
49.599998 2.640000 1.360000 -0.238508 -0.906485 -0.348423 
48.700001 3.250000 0.545000 -0.235640 -0.906750 -0.349682 
47.799999 3.900000 -0.379000 -0.227533 -0.909854 -0.346978 
46.700001 4.620000 -1.420000 -0.213172 -0.914387 -0.344173 
45.599998 5.390000 -2.560000 -0.203479 -0.918217 -0.339814 
45.799999 6.040000 -4.540000 -0.209188 -0.920987 -0.328669 
44.599998 6.120000 -3.690000 -0.192214 -0.921089 -0.338600 
44.799999 6.780000 -5.750000 -0.199133 -0.924735 -0.324363 
43.500000 6.910000 -4.910000 -0.183168 -0.924697 -0.333745 
43.799999 7.570000 -7.070000 -0.192364 -0.927439 -0.320706 
42.500000 7.680000 -6.210000 -0.177699 -0.926860 -0.330688 
42.799999 8.340000 -8.500000 -0.190705 -0.929682 -0.315156 
41.500000 8.470000 -7.640000 -0.171682 -0.929749 -0.325717 
41.799999 9.080000 -10.100000 -0.186759 -0.932288 -0.309774 
40.400002 9.240000 -9.230000 -0.168061 -0.931681 -0.322064 
39.000000 9.280000 -8.270000 -0.149979 -0.930463 -0.334284 
37.799999 9.180000 -7.110000 -0.134708 -0.928507 -0.346018 
36.599998 8.920000 -5.810000 -0.123868 -0.926815 -0.354501 
35.599998 8.630000 -4.410000 -0.115165 -0.925299 -0.361330 
34.599998 8.250000 -2.950000 -0.108042 -0.923489 -0.368098 
33.799999 7.730000 -1.490000 -0.100855 -0.921718 -0.374518 
33.200001 7.150000 -0.012000 -0.095709 -0.920661 -0.378448 
32.599998 6.510000 1.500000 -0.091162 -0.917835 -0.386354 
32.000000 5.840000 3.000000 -0.085909 -0.916676 -0.390287 
31.400000 5.080000 4.430000 -0.082231 -0.914978 -0.395037 
30.799999 4.390000 5.870000 -0.077943 -0.913418 -0.399490 
30.200001 3.700000 7.310000 -0.072358 -0.911616 -0.404623 
40.099998 8.460000 -6.710000 -0.154068 -0.928419 -0.338086 
39.000000 8.350000 -5.600000 -0.140404 -0.927892 -0.345404 
37.900002 8.160000 -4.400000 -0.131521 -0.926037 -0.353776 
36.900002 7.890000 -3.080000 -0.122779 -0.924351 -0.361250 
36.000000 7.550000 -1.720000 -0.115696 -0.922625 -0.367936 
35.200001 7.080000 -0.357000 -0.108357 -0.921068 -0.374023 
34.599998 6.490000 1.080000 -0.104145 -0.919960 -0.377926 
33.900002 5.870000 2.520000 -0.100421 -0.917451 -0.384968 
33.400002 5.260000 3.960000 -0.095475 -0.916540 -0.388381 
32.799999 4.670000 5.410000 -0.090943 -0.914606 -0.393987 
32.099998 3.990000 6.800000 -0.084373 -0.912880 -0.399414 
41.299999 7.720000 -5.260000 -0.161133 -0.926348 -0.340463 
40.099998 7.610000 -4.230000 -0.147662 -0.925945 -0.347595 
39.099998 7.390000 -3.060000 -0.138544 -0.925011 -0.353780 
38.099998 7.140000 -1.820000 -0.130700 -0.922802 -0.362427 
37.299999 6.760000 -0.537000 -0.124301 -0.921990 -0.366721 
36.500000 6.330000 0.798000 -0.117636 -0.919921 -0.374042 
35.900002 5.840000 2.190000 -0.112846 -0.918812 -0.378221 
35.299999 5.290000 3.570000 -0.106920 -0.917912 -0.382107 
34.700001 4.730000 4.960000 -0.102580 -0.916215 -0.387334 
34.099998 4.170000 6.360000 -0.099752 -0.913803 -0.393718 
33.400002 3.560000 7.740000 -0.093711 -0.912354 -0.398532 
42.400002 6.930000 -3.950000 -0.169566 -0.925044 -0.339913 
41.299999 6.840000 -2.930000 -0.156766 -0.923716 -0.349534 
40.299999 6.650000 -1.830000 -0.148516 -0.923167 -0.354550 
39.400002 6.380000 -0.618000 -0.139705 -0.921915 -0.361324 
38.599998 6.020000 0.615000 -0.131476 -0.921092 -0.366474 
37.900002 5.610000 1.920000 -0.126793 -0.918729 -0.373979 
37.200001 5.190000 3.270000 -0.122759 -0.917748 -0.377715 
36.599998 4.730000 4.630000 -0.117959 -0.915802 -0.383918 
36.000000 4.190000 5.970000 -0.114398 -0.914609 -0.387818 
35.400002 3.650000 7.330000 -0.108784 -0.913042 -0.393091 
43.400002 6.170000 -2.780000 -0.177593 -0.921632 -0.345044 
42.400002 6.090000 -1.730000 -0.167193 -0.921322 -0.351015 
41.500000 5.880000 -0.634000 -0.155166 -0.920583 -0.358401 
40.599998 5.640000 0.518000 -0.150286 -0.919213 -0.363953 
39.900002 5.310000 1.740000 -0.143392 -0.918387 -0.368788 
39.200001 4.930000 3.010000 -0.138180 -0.916749 -0.374802 
38.599998 4.560000 4.320000 -0.129874 -0.916196 -0.379102 
37.900002 4.130000 5.640000 -0.126050 -0.913891 -0.385894 
37.299999 3.650000 6.960000 -0.120837 -0.913207 -0.389168 
44.599998 5.360000 -1.620000 -0.187822 -0.918531 -0.347885 
43.599998 5.310000 -0.619000 -0.177237 -0.918195 -0.354268 
42.700001 5.150000 0.474000 -0.168561 -0.917869 -0.359309 
41.900002 4.910000 1.590000 -0.160357 -0.916609 -0.366216 
41.200001 4.610000 2.790000 -0.151930 -0.916245 -0.370693 
40.500000 4.320000 4.050000 -0.146754 -0.914620 -0.376741 
39.900002 3.990000 5.340000 -0.142835 -0.914693 -0.378067 
39.299999 3.510000 6.610000 -0.139348 -0.912052 -0.385673 
45.700001 4.610000 -0.521000 -0.201288 -0.913981 -0.352310 
44.799999 4.560000 0.457000 -0.190049 -0.914518 -0.357125 
43.900002 4.430000 1.500000 -0.177411 -0.915473 -0.361156 
43.200001 4.210000 2.600000 -0.171635 -0.914355 -0.366737 
42.500000 3.920000 3.770000 -0.165186 -0.913150 -0.372654 
41.900002 3.630000 5.000000 -0.159715 -0.911390 -0.379289 
41.200001 3.280000 6.260000 -0.153935 -0.910956 -0.382705 
46.799999 3.910000 0.483000 -0.213559 -0.909279 -0.357218 
46.000000 3.880000 1.420000 -0.200313 -0.911090 -0.360263 
45.200001 3.720000 2.440000 -0.191760 -0.910521 -0.366305 
44.400002 3.520000 3.520000 -0.184847 -0.909822 -0.371558 
43.799999 3.250000 4.680000 -0.179506 -0.909274 -0.375499 
43.200001 2.930000 5.880000 -0.172914 -0.907354 -0.383158 
47.900002 3.240000 1.360000 -0.225188 -0.905943 -0.358550 
47.099998 3.180000 2.280000 -0.215428 -0.906797 -0.362367 
46.299999 3.070000 3.260000 -0.205248 -0.905454 -0.371520 
45.700001 2.820000 4.340000 -0.197635 -0.905589 -0.375298 
45.099998 2.540000 5.470000 -0.191531 -0.904732 -0.380495 
48.799999 2.620000 2.130000 -0.229986 -0.905204 -0.357368 
48.200001 2.520000 3.020000 -0.222819 -0.904713 -0.363108 
47.599998 2.370000 4.000000 -0.215350 -0.903873 -0.369645 
47.000000 2.150000 5.060000 -0.210123 -0.902536 -0.375869 
49.799999 2.040000 2.760000 -0.234752 -0.905639 -0.353143 
49.299999 1.900000 3.620000 -0.226460 -0.904926 -0.360311 
48.799999 1.700000 4.600000 -0.221846 -0.904495 -0.364244 
50.299999 1.340000 4.040000 -0.231830 -0.905448 -0.355553 
50.000000 1.090000 5.040000 -0.226292 -0.904734 -0.360900 
61.299999 2.280000 -15.900000 -0.403808 -0.891701 -0.204473 
60.099998 2.560000 -14.400000 -0.394289 -0.894213 -0.211940 
62.500000 1.980000 -17.500000 -0.413205 -0.889043 -0.197139 
63.799999 1.650000 -19.200001 -0.421028 -0.886756 -0.190784 
65.099998 1.280000 -21.000000 -0.427977 -0.884442 -0.186007 
67.400002 0.043200 -21.400000 -0.430283 -0.883460 -0.185349 
66.300003 0.889000 -22.799999 -0.433515 -0.882499 -0.182372 
60.400002 3.030000 -17.200001 -0.405850 -0.891141 -0.202865 
59.200001 3.320000 -15.700000 -0.399460 -0.892743 -0.208429 
61.599998 2.740000 -18.700001 -0.416391 -0.888054 -0.194881 
62.799999 2.440000 -20.400000 -0.423268 -0.886089 -0.188918 
64.000000 2.090000 -22.100000 -0.430198 -0.883755 -0.184139 
65.199997 1.720000 -24.000000 -0.434489 -0.882412 -0.180467 
59.400002 3.760000 -18.400000 -0.409406 -0.890247 -0.199617 
58.200001 4.040000 -16.900000 -0.401123 -0.892413 -0.206639 
60.500000 3.490000 -19.900000 -0.417989 -0.887649 -0.193297 
61.700001 3.190000 -21.500000 -0.425360 -0.885644 -0.186291 
62.799999 2.900000 -23.200001 -0.431420 -0.883477 -0.182605 
64.000000 2.570000 -25.000000 -0.435649 -0.882130 -0.179043 
58.400002 4.480000 -19.500000 -0.410688 -0.890267 -0.196873 
57.299999 4.750000 -18.100000 -0.401300 -0.892944 -0.203982 
59.500000 4.210000 -20.900000 -0.419394 -0.887437 -0.191217 
60.599998 3.930000 -22.500000 -0.426594 -0.885395 -0.184643 
61.599998 3.660000 -24.200001 -0.432286 -0.883403 -0.180909 
62.700001 3.390000 -25.900000 -0.436293 -0.881965 -0.178285 
65.099998 2.240000 -26.799999 -0.439610 -0.880685 -0.176458 
63.799999 3.130000 -27.700001 -0.439593 -0.880992 -0.174962 
66.199997 1.930000 -28.700001 -0.441776 -0.879839 -0.175265 
64.800003 2.870000 -29.600000 -0.442063 -0.880160 -0.172914 
57.400002 5.140000 -20.500000 -0.409844 -0.891261 -0.194119 
56.400002 5.400000 -19.200001 -0.399725 -0.894150 -0.201782 
58.500000 4.880000 -22.000000 -0.417412 -0.888952 -0.188497 
59.500000 4.640000 -23.500000 -0.424431 -0.886649 -0.183611 
60.500000 4.390000 -25.100000 -0.429614 -0.885144 -0.178750 
61.500000 4.150000 -26.700001 -0.434461 -0.883424 -0.175517 
62.400002 3.930000 -28.500000 -0.436790 -0.882541 -0.174172 
63.299999 3.720000 -30.200001 -0.438706 -0.882010 -0.172036 
56.500000 5.760000 -21.500000 -0.409307 -0.891861 -0.192487 
55.500000 6.010000 -20.299999 -0.397862 -0.895486 -0.199525 
57.500000 5.520000 -22.900000 -0.416845 -0.889920 -0.185155 
58.400002 5.310000 -24.400000 -0.422824 -0.887915 -0.181184 
59.400002 5.090000 -25.900000 -0.428441 -0.885958 -0.177527 
60.299999 4.890000 -27.500000 -0.432337 -0.884688 -0.174390 
61.099998 4.690000 -29.100000 -0.434455 -0.884022 -0.172494 
61.900002 4.500000 -30.900000 -0.435792 -0.883662 -0.170956 
55.599998 6.350000 -22.500000 -0.406178 -0.893729 -0.190441 
54.700001 6.590000 -21.299999 -0.397394 -0.896383 -0.196407 
56.500000 6.120000 -23.799999 -0.414818 -0.891066 -0.184195 
57.400002 5.920000 -25.200001 -0.420964 -0.889128 -0.179559 
58.299999 5.740000 -26.700001 -0.424908 -0.887840 -0.176616 
59.099998 5.560000 -28.200001 -0.429078 -0.886364 -0.173927 
59.799999 5.390000 -29.799999 -0.432109 -0.885375 -0.171447 
60.599998 5.250000 -31.400000 -0.432473 -0.885507 -0.169838 
54.799999 6.890000 -23.400000 -0.404153 -0.895084 -0.188377 
53.900002 7.120000 -22.299999 -0.395266 -0.897799 -0.194220 
55.599998 6.690000 -24.700001 -0.411843 -0.892643 -0.183233 
56.400002 6.520000 -26.000000 -0.418550 -0.890406 -0.178867 
57.200001 6.360000 -27.400000 -0.422417 -0.889210 -0.175699 
57.900002 6.210000 -28.799999 -0.425848 -0.888130 -0.172853 
58.599998 6.080000 -30.400000 -0.427437 -0.887758 -0.170832 
59.299999 5.980000 -31.900000 -0.428130 -0.887748 -0.169140 
54.000000 7.410000 -24.299999 -0.404973 -0.895195 -0.186071 
53.200001 7.620000 -23.200001 -0.392866 -0.899252 -0.192361 
54.700001 7.250000 -25.400000 -0.409205 -0.894008 -0.182484 
55.400002 7.100000 -26.700001 -0.415189 -0.892189 -0.177809 
56.099998 6.960000 -28.000000 -0.419902 -0.890678 -0.174284 
56.700001 6.850000 -29.400000 -0.423584 -0.889377 -0.172002 
57.400002 6.750000 -30.900000 -0.423634 -0.889619 -0.170622 
58.000000 6.680000 -32.400002 -0.425239 -0.889285 -0.168358 
53.200001 7.900000 -25.000000 -0.399539 -0.897826 -0.185143 
52.500000 8.080000 -24.100000 -0.392572 -0.899788 -0.190443 
53.900002 7.780000 -26.100000 -0.406722 -0.895537 -0.180531 
54.500000 7.660000 -27.299999 -0.411696 -0.893881 -0.177436 
55.000000 7.560000 -28.600000 -0.416205 -0.892449 -0.174090 
55.599998 7.470000 -30.000000 -0.418559 -0.891921 -0.171132 
56.200001 7.410000 -31.400000 -0.420101 -0.891541 -0.169322 
52.500000 8.360000 -25.700001 -0.396583 -0.899195 -0.184850 
51.900002 8.480000 -24.900000 -0.390729 -0.900851 -0.189202 
53.000000 8.280000 -26.700001 -0.403182 -0.897177 -0.180329 
53.500000 8.210000 -27.900000 -0.407003 -0.896198 -0.176572 
54.000000 8.140000 -29.100000 -0.411412 -0.894799 -0.173421 
54.500000 8.100000 -30.500000 -0.413976 -0.894056 -0.171139 
55.099998 8.050000 -31.799999 -0.415182 -0.893807 -0.169507 
51.700001 8.760000 -26.100000 -0.394336 -0.900175 -0.184889 
51.500000 8.750000 -25.400000 -0.390160 -0.901376 -0.187875 
52.099998 8.750000 -27.100000 -0.399258 -0.898900 -0.180474 
52.500000 8.730000 -28.299999 -0.403219 -0.897871 -0.176754 
52.900002 8.700000 -29.500000 -0.405917 -0.897324 -0.173322 
53.400002 8.660000 -30.900000 -0.408495 -0.896646 -0.170755 
53.900002 8.640000 -32.200001 -0.410950 -0.896009 -0.168189 
52.700001 9.220000 -32.500000 -0.405781 -0.898344 -0.168286 
52.299999 9.230000 -31.200001 -0.402664 -0.899262 -0.170848 
51.599998 9.800000 -32.799999 -0.399875 -0.901102 -0.167676 
51.099998 9.800000 -31.400000 -0.397002 -0.901728 -0.171100 
50.400002 10.400000 -33.000000 -0.392275 -0.904386 -0.167946 
50.000000 10.400000 -31.600000 -0.390032 -0.904756 -0.171149 
49.299999 10.900000 -33.299999 -0.386027 -0.907111 -0.167730 
48.799999 10.900000 -31.799999 -0.381706 -0.908009 -0.172686 
48.099998 11.500000 -33.599998 -0.379426 -0.909887 -0.167752 
47.700001 11.500000 -32.099998 -0.374346 -0.911073 -0.172658 
47.000000 12.100000 -33.900002 -0.370860 -0.913346 -0.168112 
46.599998 12.100000 -32.400002 -0.365042 -0.914581 -0.174027 
51.799999 9.250000 -29.799999 -0.399438 -0.900061 -0.174181 
50.700001 9.770000 -30.000000 -0.394559 -0.902116 -0.174674 
49.599998 10.300000 -30.200001 -0.386325 -0.905528 -0.175422 
48.500000 10.900000 -30.299999 -0.379455 -0.908229 -0.176448 
47.400002 11.400000 -30.500000 -0.365590 -0.913228 -0.179885 
46.200001 12.000000 -30.799999 -0.357908 -0.915950 -0.181487 
51.400002 9.240000 -28.500000 -0.396367 -0.900803 -0.177334 
50.299999 9.750000 -28.700001 -0.389978 -0.903282 -0.178885 
49.299999 10.200000 -28.799999 -0.381739 -0.906466 -0.180540 
48.200001 10.800000 -28.900000 -0.372508 -0.909746 -0.183300 
47.099998 11.300000 -29.000000 -0.360122 -0.914297 -0.185402 
45.900002 11.800000 -29.100000 -0.349741 -0.917581 -0.189014 
51.099998 9.210000 -27.299999 -0.391024 -0.902121 -0.182424 
50.099998 9.680000 -27.400000 -0.385293 -0.904407 -0.183299 
49.099998 10.200000 -27.400000 -0.375560 -0.908034 -0.185551 
48.000000 10.600000 -27.400000 -0.363829 -0.911823 -0.190282 
46.900002 11.100000 -27.400000 -0.353782 -0.915316 -0.192445 
45.700001 11.700000 -27.500000 -0.340861 -0.919323 -0.196617 
50.900002 9.150000 -26.200001 -0.387385 -0.902920 -0.186195 
50.000000 9.550000 -26.100000 -0.380422 -0.905383 -0.188574 
49.000000 9.980000 -26.000000 -0.369503 -0.909132 -0.192216 
47.900002 10.400000 -26.000000 -0.359369 -0.912556 -0.195181 
46.799999 10.900000 -25.900000 -0.345964 -0.916546 -0.200629 
45.599998 11.400000 -25.900000 -0.332621 -0.920513 -0.204987 
50.900002 9.000000 -25.200001 -0.383679 -0.903734 -0.189880 
50.000000 9.350000 -25.000000 -0.376300 -0.906210 -0.192823 
49.000000 9.750000 -24.700001 -0.363071 -0.910386 -0.198433 
47.900002 10.200000 -24.500000 -0.351423 -0.913921 -0.203102 
46.799999 10.600000 -24.299999 -0.336615 -0.918485 -0.207548 
45.599998 11.100000 -24.200001 -0.323663 -0.921745 -0.213607 
40.299999 12.100000 -20.000000 -0.236308 -0.936727 -0.258265 
40.200001 12.600000 -22.000000 -0.246974 -0.936643 -0.248402 
40.599998 11.500000 -18.000000 -0.226426 -0.936439 -0.267980 
41.000000 10.900000 -16.000000 -0.215402 -0.935919 -0.278672 
41.599998 10.200000 -14.200000 -0.209184 -0.934926 -0.286627 
42.400002 9.530000 -12.400000 -0.208986 -0.933365 -0.291813 
43.200001 8.820000 -10.800000 -0.205567 -0.931756 -0.299287 
44.099998 8.120000 -9.260000 -0.206784 -0.929029 -0.306830 
45.099998 7.390000 -7.830000 -0.210137 -0.926684 -0.311607 
46.099998 6.610000 -6.520000 -0.219564 -0.923049 -0.315868 
47.099998 5.840000 -5.280000 -0.226831 -0.919887 -0.319930 
41.799999 11.700000 -20.200001 -0.255088 -0.933893 -0.250546 
41.700001 12.200000 -22.100000 -0.266465 -0.933135 -0.241362 
42.099998 11.100000 -18.299999 -0.245370 -0.933957 -0.259844 
42.599998 10.500000 -16.500000 -0.239281 -0.933321 -0.267686 
43.200001 9.840000 -14.700000 -0.230985 -0.932929 -0.276206 
43.900002 9.190000 -13.000000 -0.229711 -0.931505 -0.282012 
44.700001 8.530000 -11.400000 -0.227844 -0.930505 -0.286788 
45.599998 7.830000 -9.940000 -0.231034 -0.927911 -0.292582 
46.500000 7.110000 -8.540000 -0.235244 -0.925088 -0.298116 
47.400002 6.380000 -7.210000 -0.239915 -0.922137 -0.303488 
48.400002 5.610000 -5.960000 -0.250880 -0.917085 -0.309862 
43.299999 11.200000 -20.400000 -0.274055 -0.930693 -0.242289 
43.000000 11.700000 -22.200001 -0.281203 -0.930639 -0.234172 
43.599998 10.700000 -18.600000 -0.263434 -0.931556 -0.250611 
44.099998 10.100000 -16.900000 -0.257577 -0.931103 -0.258268 
44.700001 9.460000 -15.200000 -0.256413 -0.929840 -0.263912 
45.400002 8.840000 -13.600000 -0.254626 -0.928555 -0.270095 
46.200001 8.210000 -12.100000 -0.253200 -0.926715 -0.277648 
47.000000 7.530000 -10.600000 -0.255080 -0.924681 -0.282663 
47.900002 6.810000 -9.230000 -0.260324 -0.921816 -0.287205 
48.799999 6.070000 -7.910000 -0.266364 -0.918580 -0.291995 
49.700001 5.320000 -6.630000 -0.273828 -0.914322 -0.298384 
44.700001 10.700000 -20.700001 -0.290761 -0.927695 -0.234179 
44.400002 11.200000 -22.400000 -0.300145 -0.926509 -0.226922 
45.000000 10.200000 -19.000000 -0.283253 -0.928070 -0.241771 
45.500000 9.660000 -17.400000 -0.277291 -0.927971 -0.248957 
46.099998 9.080000 -15.800000 -0.274133 -0.927347 -0.254711 
46.799999 8.490000 -14.200000 -0.271144 -0.926374 -0.261366 
47.599998 7.850000 -12.700000 -0.278457 -0.923038 -0.265449 
48.400002 7.170000 -11.300000 -0.281332 -0.920926 -0.269716 
49.299999 6.450000 -9.950000 -0.283359 -0.918140 -0.276996 
50.099998 5.710000 -8.620000 -0.291265 -0.914631 -0.280385 
51.000000 4.970000 -7.320000 -0.298197 -0.910987 -0.284924 
46.000000 10.300000 -21.000000 -0.307975 -0.923763 -0.227628 
45.700001 10.800000 -22.600000 -0.316294 -0.922783 -0.220067 
46.400002 9.810000 -19.400000 -0.302988 -0.923795 -0.234097 
46.900002 9.260000 -17.900000 -0.297529 -0.924006 -0.240185 
47.500000 8.680000 -16.299999 -0.295620 -0.922913 -0.246660 
48.200001 8.080000 -14.900000 -0.295899 -0.921664 -0.250955 
49.000000 7.450000 -13.400000 -0.298927 -0.919062 -0.256841 
49.799999 6.780000 -12.100000 -0.300908 -0.917025 -0.261763 
50.700001 6.090000 -10.700000 -0.312268 -0.912467 -0.264372 
51.500000 5.350000 -9.360000 -0.311801 -0.910819 -0.270536 
52.400002 4.610000 -8.050000 -0.314305 -0.908624 -0.274981 
47.000000 10.300000 -22.799999 -0.333189 -0.918392 -0.213403 
47.299999 9.860000 -21.299999 -0.325651 -0.919501 -0.220159 
47.700001 9.370000 -19.799999 -0.322411 -0.919271 -0.225816 
48.200001 8.840000 -18.400000 -0.318387 -0.919079 -0.232216 
48.799999 8.280000 -17.000000 -0.317410 -0.918545 -0.235638 
49.599998 7.690000 -15.600000 -0.318264 -0.917010 -0.240419 
50.299999 7.060000 -14.200000 -0.320731 -0.914923 -0.245048 
51.200001 6.400000 -12.800000 -0.323912 -0.912419 -0.250143 
52.000000 5.710000 -11.500000 -0.325917 -0.910299 -0.255215 
52.900002 4.980000 -10.200000 -0.328122 -0.907894 -0.260892 
53.700001 4.230000 -8.840000 -0.327155 -0.906725 -0.266119 
48.099998 9.860000 -23.100000 -0.344694 -0.915289 -0.208405 
48.500000 9.440000 -21.700001 -0.342921 -0.914872 -0.213108 
48.900002 8.970000 -20.299999 -0.337005 -0.915704 -0.218892 
49.500000 8.450000 -19.000000 -0.338313 -0.914361 -0.222462 
50.099998 7.890000 -17.600000 -0.337431 -0.913535 -0.227144 
50.900002 7.310000 -16.299999 -0.341193 -0.911006 -0.231637 
51.599998 6.690000 -15.000000 -0.342281 -0.909822 -0.234667 
52.500000 6.040000 -13.700000 -0.346342 -0.907163 -0.238963 
53.299999 5.340000 -12.400000 -0.345942 -0.905761 -0.244790 
54.200001 4.610000 -11.000000 -0.345294 -0.904913 -0.248807 
55.099998 3.870000 -9.730000 -0.344888 -0.904456 -0.251021 
49.200001 9.440000 -23.400000 -0.358528 -0.911202 -0.202900 
49.599998 9.050000 -22.200001 -0.358466 -0.910210 -0.207411 
50.099998 8.570000 -20.900000 -0.355679 -0.910271 -0.211896 
50.700001 8.060000 -19.700001 -0.357586 -0.909016 -0.214061 
51.400002 7.530000 -18.400000 -0.358463 -0.907924 -0.217207 
52.099998 6.950000 -17.200001 -0.358661 -0.906698 -0.221947 
52.900002 6.340000 -15.900000 -0.361762 -0.904687 -0.225098 
53.700001 5.700000 -14.600000 -0.362714 -0.902966 -0.230413 
54.599998 5.000000 -13.300000 -0.363731 -0.901834 -0.233227 
55.500000 4.260000 -12.000000 -0.361753 -0.901510 -0.237516 
56.400002 3.500000 -10.700000 -0.358197 -0.901957 -0.241181 
50.299999 9.050000 -23.799999 -0.373123 -0.906496 -0.197598 
50.700001 8.670000 -22.700001 -0.371243 -0.906704 -0.200165 
51.200001 8.220000 -21.600000 -0.371765 -0.905669 -0.203850 
51.799999 7.720000 -20.400000 -0.370924 -0.905171 -0.207559 
52.500000 7.190000 -19.299999 -0.373156 -0.903478 -0.210907 
53.299999 6.620000 -18.100000 -0.373801 -0.902510 -0.213892 
54.099998 6.010000 -16.900000 -0.375347 -0.901195 -0.216710 
55.000000 5.360000 -15.600000 -0.376425 -0.899860 -0.220356 
55.799999 4.660000 -14.400000 -0.376413 -0.898511 -0.225812 
56.700001 3.930000 -13.100000 -0.373679 -0.899055 -0.228177 
57.599998 3.170000 -11.800000 -0.370028 -0.899873 -0.230883 
51.200001 8.720000 -24.299999 -0.382363 -0.903797 -0.192222 
51.700001 8.350000 -23.400000 -0.384305 -0.902340 -0.195174 
52.299999 7.910000 -22.400000 -0.384429 -0.901701 -0.197863 
52.900002 7.410000 -21.299999 -0.383833 -0.901148 -0.201506 
53.599998 6.870000 -20.299999 -0.385798 -0.899953 -0.203088 
54.400002 6.300000 -19.100000 -0.387227 -0.898547 -0.206564 
55.299999 5.700000 -18.000000 -0.389896 -0.896951 -0.208470 
56.200001 5.040000 -16.799999 -0.389869 -0.895940 -0.212826 
57.099998 4.340000 -15.600000 -0.390068 -0.895290 -0.215181 
58.000000 3.620000 -14.400000 -0.386674 -0.896109 -0.217880 
58.900002 2.860000 -13.000000 -0.384053 -0.896783 -0.219738 
-11.800000 19.200001 -44.799999 0.277531 -0.943885 -0.179047 
-11.800000 19.500000 -47.400002 0.281175 -0.946794 -0.156594 
-9.740000 19.700001 -45.299999 0.257108 -0.949535 -0.179665 
-9.700000 20.000000 -47.900002 0.262206 -0.952186 -0.156812 
-7.650000 20.299999 -45.799999 0.236262 -0.955321 -0.177601 
-7.620000 20.500000 -48.500000 0.240290 -0.957825 -0.157584 
-5.550000 20.700001 -46.299999 0.214883 -0.960388 -0.177427 
-5.550000 21.000000 -49.000000 0.218625 -0.962704 -0.159385 
-3.450000 21.100000 -46.900002 0.191121 -0.965646 -0.176071 
-3.500000 21.400000 -49.599998 0.196874 -0.967671 -0.157652 
34.000000 21.700001 -55.200001 -0.242346 -0.957157 -0.158486 
34.599998 21.500000 -52.900002 -0.251747 -0.956204 -0.149323 
33.200001 22.000000 -57.500000 -0.230145 -0.958824 -0.166405 
32.299999 22.100000 -59.799999 -0.216032 -0.960075 -0.177723 
25.500000 22.299999 -74.099998 -0.088606 -0.973283 -0.211825 
26.299999 21.799999 -72.199997 -0.105350 -0.971880 -0.210597 
-41.500000 6.840000 -63.400002 0.464915 -0.872410 -0.150844 
-41.200001 7.240000 -62.299999 0.469691 -0.870746 -0.145573 
-41.900002 6.460000 -64.500000 0.459818 -0.873372 -0.160586 
-42.200001 6.080000 -65.500000 0.454298 -0.875012 -0.167236 
-42.500000 5.720000 -66.400002 0.449635 -0.875866 -0.175176 
-43.700001 5.060000 -65.800003 0.458797 -0.869443 -0.183234 
-43.500000 5.400000 -64.800003 0.464527 -0.867706 -0.176919 
-45.099998 4.190000 -65.199997 0.467786 -0.862576 -0.192714 
-44.900002 4.550000 -64.099998 0.475644 -0.860177 -0.184008 
-43.299999 5.760000 -63.700001 0.471401 -0.865887 -0.167394 
-44.799999 4.920000 -62.900002 0.482939 -0.857980 -0.175044 
-43.000000 6.130000 -62.599998 0.476361 -0.864523 -0.160253 
-44.599998 5.290000 -61.799999 0.487604 -0.856457 -0.169478 
-42.799999 6.480000 -61.400002 0.481654 -0.862819 -0.153468 
-44.500000 5.620000 -60.500000 0.494803 -0.853837 -0.161654 
-43.700001 6.260000 -47.599998 0.552171 -0.815593 -0.172960 
-43.799999 6.480000 -49.500000 0.545776 -0.821852 -0.163364 
-44.400002 5.880000 -59.200001 0.503751 -0.849398 -0.157348 
-42.700001 6.830000 -60.099998 0.486888 -0.860792 -0.148247 
-44.299999 6.150000 -57.700001 0.511105 -0.845944 -0.152154 
-42.500000 7.140000 -58.700001 0.494958 -0.857205 -0.142186 
-44.200001 6.360000 -56.299999 0.518007 -0.842237 -0.149350 
-42.400002 7.460000 -57.299999 0.501112 -0.853876 -0.140651 
-44.099998 6.540000 -54.700001 0.522942 -0.838852 -0.151194 
-42.200001 7.710000 -55.700001 0.505895 -0.851229 -0.139567 
-44.000000 6.620000 -53.000000 0.530095 -0.834119 -0.152465 
-42.000000 7.830000 -54.099998 0.510465 -0.848618 -0.138826 
-43.799999 6.570000 -51.299999 0.538493 -0.828293 -0.154777 
-41.799999 7.870000 -52.299999 0.518100 -0.843246 -0.143208 
-41.700001 7.770000 -50.500000 0.525048 -0.837652 -0.150545 
-41.599998 7.590000 -48.599998 0.531563 -0.831650 -0.160623 
-41.000000 7.620000 -61.099998 0.472609 -0.870364 -0.138229 
-40.799999 7.970000 -59.900002 0.477725 -0.868066 -0.135056 
-40.500000 8.310000 -58.500000 0.483471 -0.865508 -0.130962 
-40.200001 8.660000 -56.900002 0.488995 -0.863057 -0.126558 
-39.900002 8.870000 -55.299999 0.490794 -0.861757 -0.128439 
-39.700001 8.990000 -53.500000 0.497353 -0.857512 -0.131577 
-39.500000 9.010000 -51.599998 0.503544 -0.852940 -0.137613 
-39.400002 8.950000 -49.700001 0.509500 -0.847628 -0.148111 
-41.500000 7.320000 -46.700001 0.537237 -0.825187 -0.174480 
-39.299999 8.690000 -47.700001 0.515367 -0.841748 -0.160800 
-41.400002 7.010000 -44.700001 0.543061 -0.817315 -0.192564 
-39.299999 8.390000 -45.599998 0.521403 -0.834243 -0.179384 
-41.400002 6.640000 -42.700001 0.546513 -0.809731 -0.213682 
-39.200001 8.010000 -43.599998 0.526108 -0.826492 -0.200302 
-41.299999 6.210000 -40.700001 0.549639 -0.801571 -0.235330 
-39.200001 7.650000 -41.500000 0.529548 -0.818378 -0.223239 
-41.200001 5.700000 -38.799999 0.549790 -0.795035 -0.256224 
-39.099998 7.210000 -39.500000 0.530732 -0.811386 -0.244902 
-41.000000 5.090000 -37.000000 0.552222 -0.785862 -0.278337 
-39.000000 6.590000 -37.599998 0.532580 -0.803525 -0.265907 
-40.900002 4.470000 -35.200001 0.552596 -0.779112 -0.296011 
-38.900002 5.970000 -35.700001 0.533750 -0.794705 -0.289058 
-28.600000 8.980000 -30.299999 0.439619 -0.829248 -0.345084 
-26.500000 10.000000 -30.500000 0.419544 -0.840798 -0.342113 
-26.600000 10.900000 -32.599998 0.418420 -0.851468 -0.316112 
-28.600000 9.860000 -32.299999 0.437164 -0.840297 -0.320608 
-26.600000 11.800000 -34.700001 0.416028 -0.861825 -0.290135 
-28.600000 10.700000 -34.299999 0.437117 -0.848719 -0.297665 
-26.600000 12.500000 -36.900002 0.416322 -0.869569 -0.265565 
-28.700001 11.400000 -36.500000 0.436191 -0.858164 -0.270725 
-26.600000 13.100000 -39.200001 0.414299 -0.878882 -0.236481 
-28.700001 12.000000 -38.700001 0.434475 -0.866836 -0.244596 
-36.900002 7.350000 -36.299999 0.514126 -0.810800 -0.279782 
-37.000000 7.950000 -38.299999 0.513458 -0.818538 -0.257600 
-34.799999 8.640000 -36.900002 0.493720 -0.826156 -0.271490 
-34.900002 9.210000 -38.900002 0.492859 -0.833819 -0.248669 
-32.799999 9.800000 -37.500000 0.474682 -0.840080 -0.262569 
-32.799999 10.400000 -39.700001 0.471902 -0.849431 -0.236171 
-30.700001 11.000000 -38.099998 0.454689 -0.853463 -0.254673 
-30.700001 11.500000 -40.400002 0.451879 -0.862891 -0.226326 
-28.700001 12.600000 -41.000000 0.433393 -0.874685 -0.217018 
-26.600000 13.600000 -41.599998 0.413136 -0.886568 -0.208125 
-37.099998 8.510000 -40.299999 0.512492 -0.826020 -0.234612 
-34.900002 9.690000 -41.099998 0.489809 -0.843082 -0.222036 
-32.799999 10.900000 -41.900002 0.470365 -0.856699 -0.211714 
-30.799999 12.000000 -42.700001 0.450373 -0.870415 -0.198853 
-28.600000 13.000000 -43.400002 0.430107 -0.882709 -0.189293 
-26.500000 14.000000 -44.099998 0.409840 -0.894783 -0.177184 
54.000000 -0.149000 4.270000 -0.247635 -0.908541 -0.336496 
55.400002 -0.699000 4.170000 -0.255091 -0.909082 -0.329391 
52.700001 0.349000 4.300000 -0.241058 -0.907161 -0.344891 
51.400002 0.847000 4.230000 -0.236786 -0.906699 -0.349042 
-26.500000 9.080000 -28.600000 0.419664 -0.832919 -0.360732 
-28.500000 8.060000 -28.500000 0.438987 -0.822406 -0.361855 
65.099998 -1.720000 -6.890000 -0.370532 -0.899931 -0.229848 
66.500000 -2.070000 -8.310000 -0.383476 -0.896855 -0.220448 
63.700001 -1.350000 -5.700000 -0.357511 -0.902653 -0.239590 
62.200001 -0.965000 -4.610000 -0.344338 -0.904919 -0.250107 
60.700001 -0.516000 -3.750000 -0.329758 -0.907092 -0.261618 
59.299999 -0.062600 -2.960000 -0.321412 -0.907736 -0.269648 
57.900002 0.368000 -2.260000 -0.307261 -0.909020 -0.281556 
56.500000 0.782000 -1.600000 -0.295473 -0.909498 -0.292420 
55.200001 1.240000 -1.090000 -0.285307 -0.909184 -0.303288 
66.099998 -2.680000 -5.210000 -0.362181 -0.901971 -0.235102 
67.599998 -3.120000 -6.570000 -0.375905 -0.898962 -0.224864 
64.599998 -2.260000 -4.040000 -0.349199 -0.904188 -0.245976 
63.099998 -1.780000 -3.070000 -0.340632 -0.905532 -0.252946 
61.599998 -1.320000 -2.210000 -0.324287 -0.907567 -0.266757 
60.000000 -0.825000 -1.520000 -0.313252 -0.908769 -0.275702 
58.599998 -0.380000 -0.862000 -0.302084 -0.909356 -0.286036 
57.200001 0.082100 -0.342000 -0.291680 -0.909781 -0.295332 
55.799999 0.546000 0.107000 -0.280207 -0.909709 -0.306452 
67.199997 -3.700000 -3.330000 -0.354172 -0.903598 -0.240982 
68.800003 -4.280000 -4.670000 -0.369084 -0.900662 -0.229315 
65.400002 -3.130000 -2.310000 -0.342353 -0.905845 -0.249478 
63.799999 -2.580000 -1.450000 -0.331381 -0.907422 -0.258404 
62.200001 -2.060000 -0.695000 -0.318704 -0.908517 -0.270233 
60.700001 -1.540000 -0.042400 -0.307881 -0.909691 -0.278698 
59.200001 -1.070000 0.496000 -0.295819 -0.910130 -0.290094 
57.700001 -0.569000 0.956000 -0.284196 -0.910003 -0.301874 
56.299999 -0.087800 1.340000 -0.274609 -0.909918 -0.310868 
68.000000 -4.760000 -1.190000 -0.344348 -0.905773 -0.246981 
70.300003 -5.750000 -2.040000 -0.358342 -0.903123 -0.236558 
66.099998 -4.010000 -0.415000 -0.332257 -0.907700 -0.256291 
64.400002 -3.370000 0.287000 -0.323635 -0.908470 -0.264467 
62.799999 -2.800000 0.913000 -0.310789 -0.909916 -0.274705 
61.099998 -2.220000 1.470000 -0.297420 -0.910407 -0.287577 
59.599998 -1.730000 1.940000 -0.289015 -0.910688 -0.295157 
58.099998 -1.210000 2.330000 -0.276640 -0.910617 -0.306997 
56.700001 -0.701000 2.640000 -0.269515 -0.910203 -0.314470 
56.799999 -1.230000 3.980000 -0.262749 -0.909701 -0.321569 
58.299999 -1.780000 3.730000 -0.271480 -0.910848 -0.310893 
59.799999 -2.310000 3.420000 -0.279713 -0.911318 -0.302094 
61.400002 -2.870000 3.050000 -0.290117 -0.911395 -0.291876 
63.099998 -3.450000 2.600000 -0.302753 -0.910817 -0.280629 
64.699997 -4.090000 2.100000 -0.311168 -0.910062 -0.273792 
66.500000 -4.770000 1.620000 -0.324279 -0.908810 -0.262503 
68.300003 -5.610000 1.250000 -0.329991 -0.908250 -0.257271 
70.300003 -6.630000 1.200000 -0.341029 -0.906477 -0.248997 
72.599998 -7.410000 -0.795000 -0.358210 -0.903569 -0.235052 
74.400002 -8.800000 0.260000 -0.357550 -0.903773 -0.235269 
76.599998 -9.850000 -0.730000 -0.371505 -0.900640 -0.225460 
75.000000 -8.580000 -1.880000 -0.371582 -0.900504 -0.225875 
77.199997 -9.800000 -2.560000 -0.381903 -0.897948 -0.218724 
75.699997 -8.580000 -3.800000 -0.383687 -0.897486 -0.217492 
73.300003 -7.260000 -3.110000 -0.373400 -0.900028 -0.224771 
74.199997 -7.310000 -5.250000 -0.387654 -0.896306 -0.215312 
71.599998 -5.880000 -4.630000 -0.377402 -0.898840 -0.222832 
70.199997 -4.600000 -6.470000 -0.384184 -0.897079 -0.218294 
68.900002 -3.480000 -8.180000 -0.387965 -0.896042 -0.215851 
67.699997 -2.390000 -9.870000 -0.393092 -0.894639 -0.212369 
-49.700001 -4.350000 -32.900002 0.639116 -0.690771 -0.338179 
-48.099998 -2.370000 -33.299999 0.622244 -0.709717 -0.330323 
-48.400002 -1.790000 -34.900002 0.622984 -0.717041 -0.312638 
-50.099998 -3.690000 -34.500000 0.639824 -0.697894 -0.321823 
-46.400002 -0.579000 -33.700001 0.606346 -0.726718 -0.322840 
-46.599998 0.026700 -35.400002 0.605473 -0.736040 -0.302734 
-44.599998 1.180000 -34.200001 0.588350 -0.745587 -0.312961 
-44.799999 1.830000 -35.900002 0.586968 -0.754588 -0.293369 
-42.799999 2.860000 -34.700001 0.571661 -0.761603 -0.305228 
-42.900002 3.510000 -36.400002 0.569883 -0.770403 -0.285856 
-43.099998 4.070000 -38.200001 0.569234 -0.778498 -0.264412 
-43.299999 4.620000 -40.000000 0.566907 -0.786706 -0.244356 
-43.400002 5.090000 -41.900002 0.566034 -0.792505 -0.227029 
-43.500000 5.540000 -43.799999 0.562408 -0.800587 -0.206780 
-43.599998 5.940000 -45.700001 0.558564 -0.807642 -0.189001 
-45.099998 2.450000 -37.599998 0.589080 -0.759640 -0.275557 
-45.299999 3.010000 -39.400002 0.585531 -0.769475 -0.255072 
-45.400002 3.510000 -41.200001 0.584380 -0.776762 -0.234820 
-45.599998 4.010000 -43.099998 0.582620 -0.782908 -0.218195 
-45.700001 4.490000 -44.900002 0.577310 -0.791204 -0.201764 
-46.900002 0.650000 -37.099998 0.604904 -0.744309 -0.283011 
-47.200001 1.290000 -38.799999 0.604681 -0.750851 -0.265678 
-47.400002 1.830000 -40.599998 0.602272 -0.759062 -0.247172 
-47.500000 2.310000 -42.400002 0.600826 -0.765309 -0.230891 
-47.700001 2.790000 -44.200001 0.596858 -0.773457 -0.213365 
-48.700001 -1.200000 -36.599998 0.622855 -0.725272 -0.293314 
-49.000000 -0.570000 -38.299999 0.621749 -0.733897 -0.273540 
-49.299999 0.055100 -40.099998 0.619732 -0.742043 -0.255548 
-49.400002 0.551000 -41.799999 0.619290 -0.747057 -0.241632 
-49.599998 1.060000 -43.599998 0.613772 -0.756914 -0.224423 
-50.400002 -3.080000 -36.200001 0.640417 -0.706096 -0.302152 
-50.700001 -2.500000 -37.900002 0.639737 -0.714643 -0.282881 
-51.000000 -1.870000 -39.599998 0.637524 -0.723329 -0.265251 
-51.299999 -1.260000 -41.299999 0.636831 -0.729193 -0.250449 
-51.500000 -0.710000 -43.099998 0.633135 -0.738134 -0.233020 
37.500000 22.799999 -81.300003 -0.137499 -0.948456 -0.285527 
36.099998 23.600000 -82.599998 -0.123896 -0.951154 -0.282764 
35.200001 22.299999 -80.300003 -0.126647 -0.951855 -0.279163 
36.500000 21.400000 -79.000000 -0.142285 -0.948495 -0.283041 
34.700001 24.299999 -83.800003 -0.111075 -0.953392 -0.280547 
33.900002 23.100000 -81.500000 -0.114395 -0.954264 -0.276214 
34.299999 21.200001 -78.099998 -0.133012 -0.952293 -0.274673 
35.500000 20.400000 -76.599998 -0.148499 -0.950787 -0.271942 
33.099998 22.000000 -79.400002 -0.116207 -0.955407 -0.271464 
33.200001 20.400000 -75.900002 -0.139821 -0.956269 -0.256904 
34.299999 19.600000 -74.300003 -0.157114 -0.953997 -0.255351 
32.099998 21.299999 -77.400002 -0.120347 -0.958173 -0.259657 
30.900000 20.700001 -75.500000 -0.126120 -0.961985 -0.242237 
29.700001 20.700001 -73.599998 -0.128193 -0.964363 -0.231455 
28.500000 20.900000 -71.800003 -0.128289 -0.966944 -0.220367 
27.200001 21.500000 -70.199997 -0.126789 -0.970028 -0.207294 
32.000000 20.100000 -73.800003 -0.143773 -0.959486 -0.242313 
30.799999 20.200001 -71.699997 -0.150631 -0.962305 -0.226448 
29.600000 20.799999 -69.900002 -0.151143 -0.965009 -0.214274 
28.200001 21.500000 -68.099998 -0.145793 -0.967645 -0.205933 
33.099998 19.600000 -71.900002 -0.166051 -0.957141 -0.237295 
31.900000 20.100000 -69.900002 -0.167675 -0.960269 -0.223091 
30.600000 20.900000 -67.900002 -0.169193 -0.962691 -0.211188 
29.200001 21.500000 -66.099998 -0.164692 -0.965745 -0.200534 
30.299999 21.799999 -64.099998 -0.183612 -0.963251 -0.196048 
31.799999 21.000000 -66.000000 -0.186686 -0.960556 -0.206107 
31.400000 22.200001 -62.000000 -0.200706 -0.961784 -0.186247 
32.900002 21.299999 -64.000000 -0.204486 -0.958697 -0.197703 
33.099998 20.200001 -68.000000 -0.186051 -0.957793 -0.219127 
34.200001 20.299999 -66.000000 -0.204009 -0.955874 -0.211389 
34.299999 19.400000 -70.099998 -0.181212 -0.955347 -0.233399 
35.400002 19.299999 -68.199997 -0.200669 -0.953548 -0.224674 
35.400002 19.000000 -72.500000 -0.173666 -0.952357 -0.250710 
36.599998 18.700001 -70.500000 -0.195000 -0.950721 -0.241048 
40.099998 19.200001 -57.500000 -0.276570 -0.945733 -0.170580 
41.500000 18.299999 -59.700001 -0.274197 -0.943581 -0.185663 
38.700001 20.000000 -55.099998 -0.276445 -0.947914 -0.158231 
36.900002 20.799999 -52.900002 -0.270958 -0.951268 -0.147212 
35.200001 21.200001 -50.599998 -0.263424 -0.954075 -0.142650 
40.700001 19.000000 -55.200001 -0.289809 -0.943535 -0.160477 
42.099998 18.100000 -57.500000 -0.287932 -0.941730 -0.173898 
39.099998 19.799999 -52.900002 -0.287334 -0.946126 -0.149283 
37.500000 20.400000 -50.599998 -0.280627 -0.949257 -0.141983 
35.700001 20.799999 -48.299999 -0.268813 -0.952848 -0.140787 
41.200001 18.700001 -53.000000 -0.299664 -0.941793 -0.152407 
42.500000 17.799999 -55.299999 -0.302212 -0.939241 -0.162772 
39.599998 19.299999 -50.700001 -0.295244 -0.944550 -0.143727 
38.000000 19.799999 -48.500000 -0.287087 -0.947922 -0.137930 
36.299999 20.200001 -46.099998 -0.273401 -0.951561 -0.140657 
41.700001 18.200001 -51.000000 -0.309389 -0.939858 -0.144724 
43.000000 17.400000 -53.200001 -0.311987 -0.937504 -0.154109 
40.099998 18.799999 -48.700001 -0.302380 -0.942917 -0.139548 
38.599998 19.200001 -46.400002 -0.291341 -0.946552 -0.138419 
37.000000 19.500000 -44.000000 -0.281561 -0.949042 -0.141572 
42.200001 17.700001 -49.099998 -0.316529 -0.937661 -0.143531 
43.500000 17.000000 -51.200001 -0.320928 -0.935283 -0.149166 
40.700001 18.100000 -46.799999 -0.311616 -0.940077 -0.138386 
39.299999 18.600000 -44.500000 -0.302126 -0.942971 -0.139737 
37.799999 18.799999 -42.099998 -0.286222 -0.946904 -0.146457 
42.700001 17.000000 -47.299999 -0.327047 -0.934524 -0.140373 
44.000000 16.500000 -49.400002 -0.328472 -0.933106 -0.146353 
41.400002 17.400000 -45.200001 -0.319871 -0.937292 -0.138444 
40.099998 17.799999 -43.000000 -0.307643 -0.940708 -0.142915 
38.799999 17.900000 -40.599998 -0.295971 -0.943027 -0.151988 
43.299999 16.400000 -45.700001 -0.333219 -0.932248 -0.140993 
44.500000 16.000000 -47.700001 -0.336412 -0.930777 -0.143110 
42.099998 16.700001 -43.700001 -0.323388 -0.935618 -0.141561 
41.000000 17.000000 -41.500000 -0.317836 -0.936670 -0.147071 
39.799999 17.000000 -39.299999 -0.305218 -0.939486 -0.155590 
43.900002 15.800000 -44.299999 -0.339108 -0.929971 -0.141988 
45.000000 15.400000 -46.099998 -0.344664 -0.927639 -0.143849 
42.900002 16.100000 -42.299999 -0.334805 -0.931228 -0.143941 
41.799999 16.200001 -40.299999 -0.323064 -0.934484 -0.149565 
40.799999 16.200001 -38.200001 -0.315848 -0.935450 -0.158660 
48.400002 13.700000 -50.700001 -0.343201 -0.924828 -0.164032 
47.299999 14.400000 -49.299999 -0.344638 -0.925350 -0.157962 
47.700001 13.900000 -47.700001 -0.352497 -0.923171 -0.153301 
48.799999 13.400000 -49.000000 -0.352213 -0.922118 -0.160139 
46.200001 14.900000 -47.799999 -0.344448 -0.926734 -0.150064 
46.599998 14.400000 -46.299999 -0.352106 -0.924278 -0.147419 
45.500000 14.800000 -44.700001 -0.350173 -0.925523 -0.144175 
44.599998 15.200000 -42.900002 -0.347939 -0.926453 -0.143606 
43.599998 15.400000 -41.099998 -0.340381 -0.928642 -0.147529 
42.700001 15.500000 -39.200001 -0.334049 -0.930133 -0.152528 
41.799999 15.500000 -37.200001 -0.322461 -0.932524 -0.162535 
48.099998 13.500000 -46.200001 -0.359424 -0.920971 -0.150423 
49.099998 13.000000 -47.400002 -0.360166 -0.919455 -0.157743 
47.099998 13.900000 -44.900002 -0.357389 -0.922142 -0.148077 
46.200001 14.300000 -43.400002 -0.355795 -0.923070 -0.146124 
45.299999 14.600000 -41.700001 -0.353842 -0.923873 -0.145788 
44.400002 14.700000 -40.000000 -0.349268 -0.925026 -0.149462 
43.599998 14.800000 -38.200001 -0.341176 -0.926787 -0.157052 
42.799999 14.700000 -36.400002 -0.334029 -0.927852 -0.165879 
48.500000 13.100000 -44.900002 -0.364359 -0.918628 -0.152853 
49.500000 12.700000 -45.900002 -0.365732 -0.917560 -0.155960 
47.599998 13.500000 -43.599998 -0.364762 -0.918995 -0.149657 
46.799999 13.800000 -42.200001 -0.362964 -0.920108 -0.147165 
46.000000 14.000000 -40.700001 -0.359092 -0.921261 -0.149433 
45.200001 14.100000 -39.000000 -0.356729 -0.921536 -0.153348 
44.500000 14.100000 -37.299999 -0.350585 -0.923001 -0.158619 
43.799999 14.000000 -35.599998 -0.341471 -0.924934 -0.167015 
48.900002 12.800000 -43.700001 -0.370409 -0.916575 -0.150623 
49.799999 12.400000 -44.599998 -0.371777 -0.915312 -0.154874 
48.200001 13.000000 -42.599998 -0.369206 -0.916908 -0.151544 
47.500000 13.200000 -41.299999 -0.368523 -0.917435 -0.150012 
46.799999 13.300000 -39.799999 -0.367852 -0.917378 -0.151997 
46.099998 13.400000 -38.200001 -0.362252 -0.918918 -0.156087 
45.400002 13.400000 -36.599998 -0.357798 -0.919750 -0.161369 
44.799999 13.300000 -34.900002 -0.351447 -0.920804 -0.169133 
49.500000 12.400000 -42.799999 -0.376221 -0.913799 -0.153065 
50.099998 12.100000 -43.599998 -0.376361 -0.913164 -0.156472 
48.900002 12.500000 -41.799999 -0.374787 -0.914383 -0.153098 
48.299999 12.700000 -40.500000 -0.375251 -0.914365 -0.152064 
47.700001 12.800000 -39.099998 -0.373260 -0.914727 -0.154763 
47.000000 12.800000 -37.500000 -0.370723 -0.915248 -0.157752 
46.500000 12.800000 -36.000000 -0.367216 -0.915846 -0.162417 
45.900002 12.700000 -34.400002 -0.361090 -0.917229 -0.168240 
50.099998 11.900000 -42.200001 -0.380175 -0.911811 -0.155135 
50.500000 11.900000 -42.900002 -0.379479 -0.912201 -0.154548 
49.700001 12.000000 -41.200001 -0.380485 -0.911832 -0.154253 
49.200001 12.100000 -39.900002 -0.381401 -0.911235 -0.155510 
48.599998 12.200000 -38.500000 -0.379410 -0.911958 -0.156143 
48.099998 12.200000 -37.000000 -0.377787 -0.912160 -0.158873 
47.500000 12.200000 -35.500000 -0.374869 -0.912691 -0.162690 
48.599998 11.600000 -35.099998 -0.383779 -0.908765 -0.163891 
49.700001 11.000000 -34.700001 -0.388530 -0.906611 -0.164625 
50.900002 10.400000 -34.500000 -0.396112 -0.903298 -0.164763 
52.000000 9.800000 -34.200001 -0.401482 -0.900881 -0.165002 
53.200001 9.210000 -34.000000 -0.406820 -0.898321 -0.165880 
54.400002 8.620000 -33.700001 -0.411449 -0.896134 -0.166295 
55.599998 8.010000 -33.299999 -0.417182 -0.893292 -0.167296 
56.799999 7.360000 -32.900002 -0.420806 -0.891552 -0.167503 
49.099998 11.600000 -36.599998 -0.384404 -0.909093 -0.160573 
50.200001 11.000000 -36.200001 -0.390019 -0.906461 -0.161903 
51.299999 10.400000 -35.900002 -0.397264 -0.903193 -0.162554 
49.599998 11.600000 -38.000000 -0.384851 -0.909252 -0.158589 
50.700001 11.000000 -37.700001 -0.391460 -0.906331 -0.159129 
51.799999 10.400000 -37.400002 -0.397626 -0.903425 -0.160366 
50.099998 11.600000 -39.400002 -0.385485 -0.909233 -0.157149 
51.099998 11.000000 -39.099998 -0.391307 -0.906570 -0.158142 
52.200001 10.400000 -38.799999 -0.396948 -0.903769 -0.160105 
50.599998 11.500000 -40.700001 -0.384894 -0.909846 -0.155036 
51.500000 11.000000 -40.500000 -0.390085 -0.907326 -0.156823 
52.599998 10.400000 -40.299999 -0.394735 -0.904687 -0.160393 
50.900002 11.500000 -41.900002 -0.383755 -0.910026 -0.156793 
51.799999 11.000000 -41.799999 -0.388364 -0.907886 -0.157847 
52.900002 10.500000 -41.700001 -0.393060 -0.905682 -0.158880 
51.099998 11.500000 -43.000000 -0.382634 -0.910478 -0.156914 
52.000000 11.100000 -43.099998 -0.384949 -0.909256 -0.158332 
53.000000 10.600000 -43.200001 -0.389660 -0.906693 -0.161470 
53.099998 10.600000 -44.700001 -0.384128 -0.908574 -0.164129 
52.000000 11.200000 -44.400002 -0.381482 -0.910264 -0.160905 
53.000000 10.800000 -46.299999 -0.377316 -0.910888 -0.167082 
51.900002 11.300000 -45.900002 -0.375876 -0.912468 -0.161612 
52.799999 10.900000 -48.000000 -0.371945 -0.912410 -0.170780 
51.599998 11.500000 -47.500000 -0.368678 -0.914754 -0.165232 
52.599998 11.000000 -49.799999 -0.361691 -0.915459 -0.176393 
51.400002 11.700000 -49.200001 -0.360603 -0.917107 -0.169943 
52.400002 11.300000 -51.700001 -0.350268 -0.918721 -0.182386 
51.099998 11.900000 -50.900002 -0.352375 -0.919746 -0.172914 
52.200001 11.500000 -53.500000 -0.339108 -0.921430 -0.189663 
50.900002 12.200000 -52.799999 -0.340609 -0.922529 -0.181452 
51.000000 11.700000 -44.099998 -0.378184 -0.912266 -0.157316 
50.799999 11.900000 -45.299999 -0.374009 -0.913677 -0.159098 
