52.463249 17.213100 55.737099 -0.038473 0.711950 -0.701175 
51.561199 17.356850 55.828869 -0.037543 0.707823 -0.705392 
1.430432 14.428250 -14.725360 0.050131 0.617203 0.785205 
0.622937 13.759580 -14.188510 0.046080 0.623192 0.780710 
-0.124949 14.447160 -14.585250 0.043137 0.615873 0.786664 
1.269225 13.034380 -13.758810 0.046913 0.632659 0.773009 
0.471185 12.470640 -13.321180 0.043855 0.638280 0.768554 
-0.130109 13.146020 -13.722400 0.041946 0.630076 0.775399 
1.876717 12.324960 -13.314160 0.049026 0.641513 0.765544 
2.509328 11.626630 -12.879540 0.050706 0.650525 0.757790 
1.671886 11.134540 -12.476710 0.046230 0.657045 0.752433 
1.053164 11.794610 -12.898240 0.045308 0.647453 0.760757 
3.956105 11.429150 -12.861180 0.054249 0.654923 0.753746 
3.161629 10.955220 -12.460490 0.051766 0.660203 0.749301 
4.639327 10.794710 -12.470270 0.054065 0.664924 0.744952 
3.845039 10.330210 -12.055530 0.050343 0.669747 0.740881 
3.023233 9.883958 -11.661050 0.047392 0.675796 0.735563 
2.335543 10.493530 -12.054480 0.047446 0.666359 0.744120 
4.738753 11.933040 -13.287330 0.056780 0.648182 0.759365 
5.490055 12.411520 -13.695950 0.058806 0.642079 0.764380 
6.129570 11.799010 -13.320950 0.058554 0.650448 0.757290 
5.404536 11.295430 -12.896010 0.056228 0.658012 0.750905 
6.198014 12.847990 -14.072090 0.061284 0.637255 0.768212 
6.863452 13.242210 -14.413010 0.064181 0.633946 0.770710 
7.400847 12.720250 -14.099510 0.063185 0.640290 0.765530 
6.799064 12.278760 -13.728990 0.061424 0.644868 0.761822 
51.574959 7.204710 46.525600 -0.084253 0.748426 -0.657845 
50.932899 7.563814 46.960758 -0.076675 0.739769 -0.668478 
50.272659 7.023897 46.426979 -0.083310 0.740047 -0.667376 
50.965981 6.707389 46.040661 -0.091084 0.750324 -0.654765 
50.210041 7.983989 47.412708 -0.070007 0.730781 -0.679013 
49.334438 8.452970 47.894360 -0.063848 0.721943 -0.689000 
48.621429 7.731252 47.210369 -0.072411 0.721373 -0.688751 
49.502529 7.374803 46.812790 -0.077255 0.731127 -0.677854 
49.532581 11.871030 51.100910 -0.043751 0.708928 -0.703923 
49.357510 11.152800 50.445370 -0.046111 0.709412 -0.703284 
49.688492 12.581440 51.731850 -0.042446 0.707620 -0.705317 
48.741459 12.715160 51.819740 -0.041369 0.702469 -0.710511 
48.568020 12.005830 51.187130 -0.043009 0.703361 -0.709531 
48.353458 11.282190 50.535820 -0.045448 0.703666 -0.709075 
49.837891 13.287920 52.358768 -0.041491 0.707539 -0.705455 
49.985970 13.973540 52.958569 -0.040856 0.706682 -0.706351 
49.048340 14.093590 53.028900 -0.039093 0.701467 -0.711629 
48.898411 13.413330 52.438190 -0.039756 0.702524 -0.710549 
50.129921 14.675820 53.560570 -0.039663 0.705834 -0.707266 
50.257061 15.379320 54.162880 -0.038686 0.705629 -0.707525 
49.329109 15.512640 54.235191 -0.037438 0.700866 -0.712309 
49.192661 14.799610 53.628540 -0.038445 0.701373 -0.711757 
50.369228 16.077080 54.748192 -0.037915 0.704243 -0.708946 
50.487129 16.791740 55.324982 -0.037335 0.704096 -0.709123 
49.525650 16.926861 55.418030 -0.036415 0.699604 -0.713603 
49.435059 16.215481 54.830700 -0.036877 0.700362 -0.712835 
50.616150 17.519600 55.912479 -0.036519 0.703022 -0.710230 
49.632359 17.659389 56.016781 -0.035568 0.698475 -0.714750 
-49.799519 -2.101846 39.927040 0.166900 0.871862 -0.460436 
-49.136150 -2.455129 39.562931 0.161830 0.880403 -0.445759 
-48.580681 -2.306501 40.153870 0.150924 0.868360 -0.472411 
-49.251709 -1.907942 40.492970 0.157001 0.859891 -0.485735 
-48.497532 -2.839340 39.127571 0.155311 0.891437 -0.425699 
-47.872162 -3.235775 38.682240 0.148587 0.901108 -0.407340 
-47.259319 -3.092225 39.305279 0.137657 0.890683 -0.433282 
-47.902908 -2.683777 39.768330 0.143780 0.879742 -0.453190 
-47.276249 -3.600113 38.273682 0.140854 0.911226 -0.387075 
-46.714951 -3.904709 37.832512 0.135458 0.921262 -0.364592 
-46.163040 -3.859853 38.380329 0.127869 0.913844 -0.385407 
-46.682281 -3.498894 38.811890 0.132754 0.903398 -0.407735 
-46.170181 -4.229308 37.298851 0.131136 0.930872 -0.341001 
-45.642021 -4.557223 36.745590 0.127014 0.939465 -0.318234 
-45.081760 -4.484637 37.351360 0.119112 0.931812 -0.342841 
-45.616859 -4.165378 37.889359 0.122668 0.923597 -0.363209 
-45.661381 -4.856072 35.743500 0.129282 0.949881 -0.284625 
-45.168949 -4.830212 36.283409 0.122096 0.944885 -0.303786 
-45.127178 -5.084738 35.230770 0.121796 0.956225 -0.266082 
-44.679779 -5.038028 35.793560 0.116985 0.951411 -0.284836 
-44.192810 -4.979370 36.374939 0.110131 0.945986 -0.304929 
-44.625969 -4.756445 36.849560 0.116356 0.938379 -0.325432 
-46.172020 -4.862884 35.160030 0.136869 0.955774 -0.260314 
-46.708729 -4.860672 34.566380 0.145411 0.959663 -0.240630 
-46.101379 -5.092101 34.043869 0.137503 0.965563 -0.220866 
-45.600239 -5.097555 34.652359 0.128374 0.961063 -0.244700 
-47.235100 -4.823671 33.981369 0.155188 0.963103 -0.219885 
-47.794762 -4.792340 33.337769 0.165239 0.966871 -0.194565 
-47.135471 -5.032828 32.813099 0.155327 0.971992 -0.176368 
-46.599522 -5.069867 33.435070 0.145522 0.968926 -0.200012 
-48.330070 -4.775606 32.702030 0.174854 0.970015 -0.168813 
-48.764771 -4.764341 32.139050 0.183193 0.971914 -0.147727 
-48.216560 -4.939677 31.773211 0.174792 0.975405 -0.134283 
-47.697880 -4.987190 32.247898 0.165421 0.973868 -0.155621 
-49.110481 -4.748371 31.591890 0.189655 0.973737 -0.125967 
-49.365170 -4.746029 31.135059 0.193380 0.974693 -0.112148 
-48.951931 -4.838350 31.097561 0.186867 0.976331 -0.108898 
-48.655041 -4.886661 31.374981 0.182658 0.975663 -0.121317 
-49.415241 -4.757738 30.680321 0.194196 0.976389 -0.094621 
-49.337341 -4.787518 30.041210 0.194194 0.978185 -0.073779 
-48.618069 -4.936233 30.161190 0.182304 0.980241 -0.076760 
-48.834400 -4.872223 30.761370 0.185484 0.977596 -0.099511 
-49.192261 -4.834597 29.286760 0.190399 0.980513 -0.048404 
-49.057850 -4.879912 28.553560 0.186964 0.982045 -0.025121 
-48.189751 -5.046359 28.692471 0.173815 0.984374 -0.028208 
-48.384232 -5.001238 29.439381 0.178326 0.982460 -0.054519 
-48.945011 -4.869757 27.778730 0.183481 0.983020 -0.002446 
-48.848042 -4.856912 26.961411 0.181163 0.983217 0.021534 
-47.977081 -5.020878 27.029530 0.166763 0.985791 0.020152 
-48.063721 -5.037464 27.873911 0.170447 0.985362 -0.003243 
-48.747799 -4.811324 26.162291 0.177838 0.983160 0.042083 
-48.640690 -4.757961 25.321239 0.173154 0.982579 0.067494 
-47.791351 -4.915520 25.400810 0.158518 0.985003 0.068129 
-47.886219 -4.968866 26.219919 0.163593 0.985518 0.044638 
-48.518002 -4.700760 24.528120 0.168258 0.981949 0.086406 
-48.336639 -4.624913 23.727520 0.162524 0.980664 0.109017 
-47.481579 -4.768858 23.801559 0.148680 0.982928 0.108382 
-47.666222 -4.847349 24.628309 0.154519 0.984169 0.086808 
-48.106720 -4.554833 22.925831 0.157343 0.979007 0.129570 
-47.871761 -4.453772 22.136930 0.152474 0.977273 0.147274 
-46.932850 -4.626456 22.321400 0.141142 0.979340 0.144819 
-47.230751 -4.714881 23.065420 0.144752 0.981357 0.126429 
-48.270168 -2.954495 16.141159 0.140227 0.957572 0.251778 
-48.066269 -3.179499 16.854639 0.140259 0.960208 0.241511 
-48.469341 -2.747101 15.515240 0.140130 0.955271 0.260425 
-47.797722 -2.764937 15.256130 0.132673 0.954698 0.266364 
-47.523819 -2.986688 15.891140 0.133057 0.956915 0.258089 
-47.235710 -3.229427 16.613819 0.131222 0.959970 0.247465 
-47.490002 -2.526388 14.325790 0.128552 0.951239 0.280391 
-48.104069 -2.543608 14.680510 0.133809 0.952647 0.273053 
-46.849251 -2.492892 13.925290 0.120923 0.950260 0.287026 
-46.463181 -2.728346 14.521550 0.119784 0.952673 0.279404 
-47.133190 -2.756158 14.914200 0.127038 0.953871 0.272015 
-46.187561 -2.447611 13.479520 0.114792 0.948765 0.294394 
-45.533020 -2.394073 13.011300 0.107351 0.946652 0.303850 
-45.098389 -2.627738 13.608740 0.105042 0.949594 0.295361 
-45.779621 -2.682950 14.081410 0.111703 0.951345 0.287168 
-45.357330 -2.075868 11.981130 0.103672 0.942118 0.318851 
-44.902111 -2.332193 12.541790 0.100744 0.944613 0.312341 
-44.740471 -1.986595 11.481240 0.096541 0.939520 0.328605 
-44.271832 -2.245352 12.054600 0.094624 0.942430 0.320735 
-43.809811 -2.480734 12.615460 0.091643 0.945564 0.312267 
-44.440739 -2.563018 13.125430 0.098359 0.947501 0.304250 
-45.823471 -1.818513 11.421280 0.105143 0.939479 0.326075 
-46.283642 -1.558257 10.895430 0.106851 0.937751 0.330462 
-45.691029 -1.477933 10.418170 0.099548 0.935306 0.339547 
-45.222050 -1.730149 10.921500 0.098795 0.937472 0.333746 
-46.771870 -1.290108 10.371480 0.107142 0.935508 0.336667 
-47.246689 -1.040098 9.890539 0.107994 0.934144 0.340164 
-46.742298 -0.935580 9.442579 0.102313 0.931403 0.349315 
-46.209389 -1.196225 9.898651 0.100826 0.933118 0.345145 
-47.651180 -0.822479 9.476989 0.108299 0.932475 0.344619 
-47.938259 -0.625556 9.098438 0.107656 0.931244 0.348132 
-47.537991 -0.609958 8.922804 0.103932 0.929876 0.352888 
-47.218990 -0.736459 9.119688 0.103529 0.930405 0.351609 
-48.054371 -0.412922 8.622646 0.105513 0.929215 0.354156 
-48.128380 -0.172920 8.065029 0.101746 0.926573 0.362093 
-47.481949 -0.223829 7.964503 0.097765 0.925391 0.366189 
-47.495918 -0.450764 8.521234 0.101404 0.928207 0.357978 
-48.219898 0.063334 7.520744 0.098635 0.924721 0.367644 
-48.377811 0.317996 7.011517 0.094941 0.923186 0.372442 
-47.733150 0.326052 6.808887 0.091766 0.921053 0.378470 
-47.566711 0.030649 7.391117 0.094232 0.923281 0.372388 
-48.587700 0.574149 6.510688 0.092994 0.921551 0.376956 
-48.851570 0.794694 6.097058 0.090158 0.920542 0.380098 
-48.372509 0.897025 5.748431 0.084697 0.918025 0.387370 
-48.004211 0.628133 6.240444 0.088237 0.919373 0.383364 
-49.486340 1.356966 5.045842 0.081539 0.918376 0.387216 
-49.006969 1.634056 4.368417 0.074913 0.915027 0.396375 
-48.306190 1.317611 4.841293 0.077163 0.914697 0.396706 
-48.858528 1.131556 5.361562 0.084088 0.918237 0.387001 
-47.591290 1.526966 4.253646 0.070850 0.910757 0.406820 
-47.047531 1.124549 4.938622 0.074741 0.912184 0.402907 
-47.771980 1.003187 5.358888 0.080549 0.915393 0.394421 
49.146881 10.384250 49.726791 -0.049169 0.711311 -0.701155 
48.857319 9.561597 48.967270 -0.055034 0.712548 -0.699461 
48.094360 10.546990 49.866669 -0.048843 0.704689 -0.707833 
47.756359 9.797665 49.188690 -0.053546 0.704416 -0.707765 
48.299259 8.783349 48.229370 -0.060732 0.712688 -0.698847 
47.687191 8.033507 47.549969 -0.069123 0.712386 -0.698375 
47.286560 9.057964 48.506210 -0.059583 0.703951 -0.707745 
46.756378 8.316007 47.857830 -0.067237 0.704549 -0.706463 
-47.352901 0.683382 5.935048 0.083251 0.916895 0.390349 
-46.621552 0.746804 5.599821 0.078009 0.914197 0.397692 
-46.285900 0.368890 6.308809 0.080199 0.916550 0.391797 
-47.044701 0.337988 6.584922 0.086227 0.918767 0.385268 
-46.201180 1.233483 4.522691 0.068962 0.909050 0.410941 
-45.812660 0.819328 5.243277 0.071456 0.911164 0.405800 
-45.323910 1.325230 4.132363 0.062221 0.905971 0.418743 
-44.990391 0.894896 4.898489 0.066099 0.908724 0.412131 
-44.658741 0.489312 5.628383 0.068252 0.910797 0.407173 
-45.467812 0.429509 5.969490 0.074564 0.913688 0.399518 
-46.656071 1.665052 3.773977 0.064747 0.907095 0.415915 
-47.122540 2.119199 2.967990 0.059978 0.905081 0.420988 
-46.086910 2.213527 2.565080 0.054533 0.901087 0.430196 
-45.711430 1.759962 3.370371 0.059448 0.903966 0.423452 
-47.414669 2.607562 2.084271 0.053848 0.902462 0.427391 
-47.712818 3.088029 1.205283 0.048014 0.900280 0.432654 
-46.702251 3.161282 0.867805 0.044332 0.896106 0.441621 
-46.393711 2.679197 1.730501 0.049623 0.898652 0.435846 
-48.067230 3.524278 0.377257 0.040988 0.897441 0.439225 
-48.522690 3.960645 -0.425225 0.035479 0.896025 0.442584 
-47.628300 4.116634 -0.848911 0.033424 0.892285 0.450234 
-47.118900 3.641952 0.012876 0.038886 0.894179 0.446019 
-49.108330 4.350589 -1.206490 0.030090 0.894813 0.445426 
-49.699070 4.661425 -1.895836 0.024627 0.893966 0.447457 
-48.920399 4.861265 -2.339738 0.022866 0.890746 0.453926 
-48.264702 4.534917 -1.663503 0.028134 0.891150 0.452835 
-50.276321 4.927243 -2.487571 0.019244 0.893919 0.447816 
-50.835621 5.182438 -3.004974 0.015408 0.893606 0.448588 
-50.184029 5.380456 -3.412350 0.014219 0.890575 0.454614 
-49.578892 5.115874 -2.908937 0.018115 0.891191 0.453266 
-51.361622 5.455677 -3.539492 0.010214 0.893418 0.449110 
-51.796501 5.721012 -4.060202 0.006697 0.892433 0.451130 
-51.255711 5.888466 -4.390935 0.006059 0.889695 0.456515 
-50.756580 5.649509 -3.926923 0.009757 0.890506 0.454867 
-52.173840 7.111904 -6.676449 -0.008617 0.879889 0.475100 
-52.309620 6.769573 -6.042875 -0.005442 0.884276 0.466933 
-52.002010 7.475818 -7.351308 -0.011335 0.875852 0.482448 
-51.207352 7.359470 -7.117540 -0.008493 0.875313 0.483482 
-51.441292 7.005601 -6.467002 -0.004939 0.879206 0.476416 
-51.652390 6.682142 -5.872723 -0.002627 0.883465 0.468490 
-51.801369 7.861798 -8.050811 -0.013304 0.871912 0.489482 
-51.552521 8.272294 -8.791714 -0.017236 0.866109 0.499558 
-50.689529 8.116448 -8.482008 -0.013883 0.865706 0.500361 
-50.970951 7.723927 -7.774834 -0.009974 0.871693 0.489950 
-51.250069 8.694436 -9.552259 -0.019990 0.858425 0.512549 
-50.875252 9.114363 -10.306620 -0.023897 0.850462 0.525493 
-49.992668 8.915999 -9.918480 -0.021505 0.851482 0.523943 
-50.368320 8.513602 -9.196445 -0.016713 0.859267 0.511254 
-50.418598 9.528967 -11.044650 -0.028760 0.841430 0.539600 
-49.911980 9.895573 -11.694810 -0.033797 0.832015 0.553722 
-49.080700 9.670382 -11.290550 -0.031662 0.832493 0.553130 
-49.542671 9.316791 -10.631620 -0.026565 0.841979 0.538856 
-49.369301 10.263760 -12.293160 -0.039418 0.818579 0.573041 
-48.784790 10.652360 -12.923020 -0.045692 0.805910 0.590272 
-48.060619 10.401190 -12.504050 -0.043056 0.809307 0.585806 
-48.598011 10.023370 -11.885170 -0.037104 0.821156 0.569496 
-48.206409 11.035780 -13.544930 -0.053838 0.790249 0.610416 
-47.620560 11.408240 -14.150420 -0.057891 0.777812 0.625825 
-46.944530 11.140090 -13.714740 -0.053327 0.783589 0.618987 
-47.506889 10.775460 -13.117100 -0.048524 0.795367 0.604182 
-47.031311 11.716610 -14.654530 -0.062021 0.767988 0.637454 
-46.545700 11.776900 -14.833740 -0.063076 0.762866 0.643473 
-45.857189 11.700990 -14.632350 -0.061297 0.762529 0.644044 
-46.372791 11.494190 -14.290100 -0.057958 0.770442 0.634870 
-46.868999 12.311460 -15.217610 -0.067738 0.756046 0.651004 
-46.094761 11.943460 -14.878210 -0.063357 0.758931 0.648082 
-46.353760 12.842590 -15.592090 -0.072725 0.743237 0.665064 
-45.604500 12.406610 -15.173650 -0.066894 0.749143 0.659022 
-44.995819 12.049310 -14.797740 -0.062092 0.753568 0.654431 
-45.458019 11.736440 -14.691400 -0.060933 0.759855 0.647230 
-47.685631 12.677630 -15.665400 -0.072484 0.752530 0.654557 
-48.428082 12.949440 -16.030451 -0.077348 0.749612 0.657343 
-47.857121 13.434800 -16.341240 -0.081445 0.738984 0.668782 
-47.133942 13.184830 -16.013639 -0.077498 0.740965 0.667057 
-49.068111 13.142820 -16.349291 -0.081058 0.747339 0.659480 
-49.616550 13.381690 -16.622690 -0.086579 0.746374 0.659871 
-49.180981 13.890980 -16.916679 -0.091828 0.734807 0.672031 
-48.551922 13.663100 -16.634340 -0.086554 0.736815 0.670532 
-50.115211 13.685420 -16.937229 -0.092760 0.742156 0.663777 
-50.635971 14.093600 -17.332609 -0.099199 0.737893 0.667588 
-50.186829 14.285210 -17.391130 -0.100698 0.732206 0.673598 
-49.735111 14.110180 -17.179211 -0.096924 0.733592 0.672643 
-51.016140 14.515090 -17.770861 -0.105150 0.732774 0.672299 
-50.229481 14.667860 -17.681280 -0.104578 0.727928 0.677631 
47.568260 0.320475 1.045303 -0.038869 0.927350 0.372170 
46.652901 0.141336 1.361745 -0.040612 0.925764 0.375915 
46.061871 0.571705 0.363895 -0.030707 0.919339 0.392266 
47.331131 0.704351 0.180471 -0.029546 0.922912 0.383876 
45.824799 -0.162366 1.927150 -0.045718 0.926363 0.373846 
45.111832 -0.483241 2.526116 -0.047966 0.927133 0.371650 
44.457329 -0.234355 1.884097 -0.044063 0.922614 0.383201 
45.148281 0.125260 1.209275 -0.038755 0.921123 0.387338 
44.446651 -0.805934 3.146230 -0.052376 0.928732 0.367034 
43.797642 -1.120772 3.749680 -0.055571 0.930658 0.361644 
43.135578 -0.900046 3.155134 -0.051224 0.926152 0.373656 
43.773190 -0.578788 2.545376 -0.048173 0.923981 0.379392 
43.146648 -1.412459 4.331397 -0.058590 0.932828 0.355527 
42.494579 -1.700107 4.910708 -0.059679 0.934794 0.350140 
41.868870 -1.489941 4.321877 -0.055001 0.930573 0.361950 
42.500320 -1.202247 3.738605 -0.054071 0.928149 0.368262 
41.857891 -1.981083 5.475662 -0.060023 0.936840 0.344569 
41.245232 -2.241056 6.017432 -0.059793 0.939485 0.337331 
40.652550 -2.059753 5.469552 -0.054947 0.935829 0.348146 
41.243359 -1.786217 4.911084 -0.055537 0.933155 0.355159 
40.639679 -2.491595 6.578141 -0.059362 0.942462 0.329000 
40.057980 -2.736338 7.137930 -0.058329 0.945787 0.319506 
39.481781 -2.595193 6.609417 -0.053770 0.941662 0.332236 
40.059799 -2.330192 6.046062 -0.054644 0.938435 0.341107 
39.501740 -2.974174 7.727322 -0.057168 0.949135 0.309636 
38.959789 -3.222721 8.349211 -0.056332 0.952429 0.299510 
38.378311 -3.082663 7.794469 -0.051342 0.948562 0.312401 
38.928440 -2.837067 7.183340 -0.052267 0.944735 0.323641 
38.460339 -3.461635 8.965946 -0.055286 0.955774 0.288858 
37.984310 -3.692808 9.611190 -0.053598 0.958729 0.279225 
37.384361 -3.539661 9.026165 -0.048517 0.955146 0.292133 
37.875050 -3.324308 8.403503 -0.049078 0.951464 0.303821 
38.143520 -4.062462 10.831970 -0.057960 0.964458 0.257801 
37.498451 -3.921212 10.282050 -0.051845 0.961761 0.268937 
37.672451 -4.263592 11.514940 -0.056334 0.967207 0.247665 
36.975830 -4.141157 10.916680 -0.050314 0.964546 0.259076 
36.331638 -3.992249 10.346820 -0.044161 0.961575 0.270966 
36.862202 -3.767661 9.692713 -0.046496 0.958503 0.281263 
38.831539 -4.153395 11.353820 -0.063483 0.967284 0.245626 
39.584091 -4.216773 11.818620 -0.070194 0.969396 0.235253 
39.308880 -4.484657 12.832710 -0.072619 0.973546 0.216646 
38.399380 -4.379292 12.132220 -0.062416 0.970368 0.233432 
40.340221 -4.189701 11.985120 -0.076936 0.970343 0.229162 
40.367569 -4.361339 12.735190 -0.079849 0.973273 0.215324 
40.692841 -4.517805 13.574760 -0.085602 0.976206 0.199233 
41.104759 -4.632739 14.351960 -0.092898 0.979124 0.180793 
40.284801 -4.781615 14.696740 -0.087906 0.980149 0.177711 
39.820820 -4.673168 13.859730 -0.080283 0.977474 0.195190 
41.563229 -4.719792 15.147340 -0.100463 0.981494 0.163025 
42.024021 -4.806537 15.952860 -0.108948 0.983359 0.145378 
41.255840 -4.959529 16.304510 -0.104126 0.984479 0.141275 
40.773418 -4.880496 15.531080 -0.095620 0.982848 0.157690 
42.443642 -4.883985 16.693899 -0.116452 0.984995 0.127370 
42.834240 -4.914025 17.421570 -0.123801 0.986143 0.110434 
42.100750 -5.051418 17.776791 -0.119478 0.987170 0.105923 
41.701801 -5.013232 17.037750 -0.111675 0.985967 0.124092 
43.865150 -4.969534 19.558689 -0.147326 0.987470 0.056543 
43.202099 -5.091567 19.884430 -0.143776 0.988221 0.052420 
42.849461 -5.104363 19.195160 -0.136036 0.988234 0.069907 
43.539749 -4.974262 18.882401 -0.139698 0.987466 0.073455 
42.545250 -5.208820 20.242840 -0.140614 0.988946 0.047050 
41.883308 -5.328374 20.624861 -0.136480 0.989791 0.041080 
41.509392 -5.331380 19.959690 -0.128482 0.989927 0.059472 
42.179501 -5.219424 19.557220 -0.131446 0.989069 0.066813 
41.239288 -5.436545 21.013470 -0.131869 0.990679 0.034133 
40.599480 -5.527734 21.419720 -0.127601 0.991422 0.028278 
40.205940 -5.542432 20.778200 -0.120003 0.991719 0.045746 
40.852291 -5.442278 20.373529 -0.124600 0.990830 0.052264 
39.950489 -5.620656 21.845751 -0.124270 0.992056 0.019523 
39.308331 -5.709408 22.263479 -0.119810 0.992736 0.011032 
38.900909 -5.732219 21.640100 -0.111792 0.993331 0.028201 
39.549568 -5.635432 21.209240 -0.115049 0.992675 0.036894 
38.679920 -5.788736 22.689100 -0.115637 0.993288 0.002552 
38.064110 -5.863011 23.123680 -0.108823 0.994041 -0.006305 
37.679199 -5.890180 22.485809 -0.102387 0.994676 0.011677 
38.281898 -5.817545 22.059820 -0.106951 0.994048 0.020744 
37.781200 -5.899498 24.117319 -0.108558 0.993519 -0.033686 
37.450600 -5.937365 23.533340 -0.102579 0.994608 -0.015275 
37.161518 -5.962665 24.453640 -0.102582 0.993829 -0.042192 
36.873562 -6.008612 23.870211 -0.097312 0.994990 -0.022918 
36.539829 -6.038194 23.326361 -0.091492 0.995766 -0.008930 
37.075230 -5.968565 22.932529 -0.096539 0.995328 0.001790 
38.124722 -5.831220 24.759960 -0.114966 0.992003 -0.052083 
38.465069 -5.763672 25.425360 -0.121160 0.989876 -0.073931 
37.787418 -5.832070 25.760530 -0.113385 0.989878 -0.085350 
37.466942 -5.899171 25.097670 -0.109026 0.992121 -0.061714 
38.801071 -5.672585 26.082270 -0.127077 0.987193 -0.096445 
39.143459 -5.566688 26.757420 -0.131452 0.984180 -0.118784 
38.429260 -5.633846 27.146749 -0.122276 0.983992 -0.129649 
38.110458 -5.735365 26.445440 -0.118054 0.987298 -0.106326 
39.485569 -5.439356 27.433840 -0.136519 0.980284 -0.142847 
39.857189 -5.290530 28.164169 -0.142402 0.976195 -0.163603 
39.118179 -5.357087 28.569370 -0.136159 0.975336 -0.173726 
38.753830 -5.506592 27.828560 -0.129138 0.980021 -0.151270 
40.218811 -5.147633 28.865009 -0.147943 0.971681 -0.184251 
40.564209 -4.985651 29.529720 -0.152902 0.967093 -0.203354 
39.807652 -5.043458 29.957911 -0.146865 0.966032 -0.212635 
39.471191 -5.211060 29.273439 -0.141657 0.970862 -0.193290 
40.929699 -4.789341 30.222670 -0.158412 0.962078 -0.222061 
41.307690 -4.592238 30.918310 -0.163282 0.956112 -0.243289 
40.528179 -4.652573 31.329901 -0.155364 0.955061 -0.252428 
40.156189 -4.857255 30.654280 -0.150163 0.961214 -0.231339 
41.664089 -4.393820 31.573259 -0.165969 0.950979 -0.260948 
42.021130 -4.163018 32.192242 -0.170478 0.944944 -0.279318 
41.249081 -4.210584 32.595001 -0.162896 0.942501 -0.291816 
40.906601 -4.422797 31.989880 -0.159999 0.949236 -0.270835 
42.396858 -3.914092 32.784351 -0.173605 0.938314 -0.299045 
42.764172 -3.615468 33.425831 -0.176891 0.930891 -0.319612 
41.973190 -3.611966 33.909000 -0.169401 0.927012 -0.334592 
41.594639 -3.928441 33.203499 -0.166467 0.935976 -0.310222 
43.139709 -3.299068 34.117451 -0.178670 0.922960 -0.340914 
43.484379 -3.035148 34.696411 -0.179498 0.914879 -0.361632 
42.719810 -3.031937 35.087029 -0.171648 0.910477 -0.376257 
42.349911 -3.318342 34.551010 -0.170586 0.918270 -0.357324 
43.801071 -2.717143 35.230930 -0.180701 0.905680 -0.383525 
44.147259 -2.349502 35.832600 -0.182149 0.895550 -0.405969 
43.433350 -2.351783 36.241901 -0.175599 0.889551 -0.421740 
43.087280 -2.685228 35.670158 -0.174348 0.900314 -0.398794 
44.531239 -1.989422 36.402920 -0.182291 0.886279 -0.425769 
44.898289 -1.611119 36.919338 -0.182299 0.876724 -0.445109 
44.172081 -1.572793 37.311131 -0.176400 0.870705 -0.459081 
43.798458 -1.973862 36.754620 -0.176388 0.881214 -0.438577 
45.241131 -1.205182 37.461411 -0.181480 0.867582 -0.462998 
45.600601 -0.763265 38.038300 -0.178650 0.858469 -0.480745 
44.876911 -0.720559 38.378269 -0.172874 0.852208 -0.493818 
44.512489 -1.168008 37.839729 -0.174936 0.860938 -0.477685 
45.943352 -0.313113 38.602951 -0.175402 0.848773 -0.498817 
46.251209 0.148793 39.160351 -0.171637 0.838381 -0.517357 
45.525471 0.192780 39.501961 -0.167224 0.832415 -0.528319 
45.221310 -0.256270 38.952610 -0.170596 0.841821 -0.512089 
46.550510 0.617509 39.724880 -0.169032 0.829801 -0.531845 
46.866360 1.132172 40.306438 -0.164463 0.819306 -0.549262 
46.102039 1.183261 40.605808 -0.158703 0.813072 -0.560113 
45.804550 0.655806 40.034828 -0.163229 0.822473 -0.544881 
47.172401 1.640990 40.882210 -0.160369 0.810473 -0.563396 
47.460312 2.158115 41.435879 -0.154880 0.800984 -0.578305 
46.648941 2.244758 41.752571 -0.149036 0.793057 -0.590635 
46.383850 1.691089 41.179241 -0.154486 0.802650 -0.576097 
47.785358 2.741613 42.042542 -0.148604 0.791430 -0.592921 
48.122761 3.285266 42.634930 -0.140439 0.783343 -0.605517 
47.302349 3.390529 42.914242 -0.135691 0.776019 -0.615941 
46.960079 2.817658 42.338570 -0.142968 0.783935 -0.604158 
48.491611 3.867760 43.191750 -0.134057 0.776449 -0.615756 
48.925159 4.487214 43.822289 -0.125652 0.769295 -0.626416 
48.080551 4.651532 44.139889 -0.119440 0.760110 -0.638723 
47.658081 4.007518 43.513191 -0.127869 0.767617 -0.628023 
49.356251 5.042343 44.399368 -0.116878 0.763177 -0.635532 
49.829590 5.599136 44.933121 -0.106713 0.757580 -0.643960 
49.070030 5.829615 45.285080 -0.101711 0.747959 -0.655905 
48.568581 5.245653 44.726200 -0.110819 0.753498 -0.648043 
50.389729 6.177524 45.498211 -0.099144 0.753030 -0.650473 
49.643990 6.437397 45.850830 -0.091621 0.743348 -0.662600 
-53.409142 -1.103221 40.106392 0.214324 0.864784 -0.454107 
17.842291 15.285140 -17.031099 0.089446 0.648605 0.755852 
17.353260 14.788270 -16.592720 0.084393 0.649326 0.755813 
16.799789 15.200340 -16.850889 0.087061 0.644978 0.759226 
17.308580 15.562780 -17.184629 0.091757 0.644347 0.759208 
17.410151 13.822530 -15.871270 0.075057 0.656137 0.750900 
16.760281 14.297620 -16.175900 0.079351 0.650645 0.755225 
16.765961 13.291590 -15.420080 0.070399 0.657396 0.750250 
16.112070 13.836370 -15.776610 0.074525 0.651413 0.755054 
15.527800 14.395070 -16.129520 0.078256 0.645338 0.759878 
16.197109 14.794290 -16.487730 0.082827 0.645216 0.759497 
18.115749 13.364450 -15.580990 0.071584 0.661611 0.746423 
18.845280 12.917850 -15.287220 0.068835 0.667542 0.741383 
18.185520 12.308520 -14.776120 0.062872 0.669621 0.740037 
17.457170 12.796320 -15.104000 0.066536 0.663242 0.745442 
19.620399 12.459540 -14.968070 0.066167 0.673808 0.735938 
20.406269 12.017240 -14.661200 0.062732 0.680525 0.730035 
19.728559 11.334510 -14.120100 0.056451 0.682687 0.728528 
18.960991 11.799960 -14.435560 0.059559 0.676211 0.734296 
21.230721 11.616900 -14.353190 0.060125 0.686182 0.724941 
22.120729 11.237980 -14.067980 0.059480 0.692679 0.718789 
21.435600 10.534280 -13.457030 0.052375 0.695351 0.716759 
20.528730 10.949590 -13.810670 0.053050 0.689418 0.722419 
23.122601 10.905690 -13.753870 0.060135 0.699806 0.711797 
24.292839 10.577740 -13.485580 0.059654 0.707656 0.704035 
23.694790 9.571758 -12.559450 0.049022 0.714678 0.697734 
22.419661 10.111590 -13.061880 0.051697 0.702504 0.709800 
25.581739 10.466900 -13.413950 0.060538 0.714723 0.696782 
26.762211 10.392870 -13.415800 0.063472 0.721137 0.689878 
26.632700 9.640461 -12.693230 0.054876 0.727375 0.684043 
25.349680 9.634979 -12.610090 0.052231 0.721804 0.690124 
27.848110 10.353450 -13.446180 0.068628 0.726858 0.683350 
28.901300 10.313050 -13.493180 0.072754 0.732612 0.676747 
28.806730 9.640177 -12.793060 0.065254 0.738761 0.670801 
27.740660 9.654740 -12.740380 0.059568 0.732534 0.678119 
29.892651 10.263660 -13.527660 0.076429 0.737973 0.670488 
30.824850 10.213870 -13.565310 0.081232 0.743537 0.663742 
30.736650 9.586430 -12.905980 0.071092 0.749603 0.658058 
29.803610 9.620405 -12.851870 0.068298 0.744579 0.664031 
31.773380 10.165720 -13.607330 0.084493 0.750247 0.655737 
32.680210 10.116840 -13.677870 0.087729 0.756442 0.648151 
32.578671 9.537501 -13.005920 0.077077 0.761901 0.643091 
31.667540 9.549875 -12.947140 0.074503 0.755951 0.650375 
33.566719 10.052530 -13.734570 0.091833 0.761646 0.641454 
34.372940 9.989195 -13.767760 0.095253 0.767496 0.633937 
34.332790 9.466318 -13.136970 0.084220 0.773012 0.628776 
33.493031 9.507326 -13.078320 0.080878 0.767829 0.635530 
35.294312 10.361490 -14.352180 0.107960 0.769526 0.629423 
35.190041 9.905788 -13.787260 0.098519 0.772716 0.627060 
36.009918 10.228910 -14.327250 0.110182 0.774611 0.622766 
35.926628 9.828351 -13.832000 0.102023 0.778345 0.619492 
35.912411 9.422455 -13.328740 0.093853 0.781403 0.616928 
35.142040 9.434465 -13.214950 0.089642 0.777497 0.622465 
35.539871 10.803950 -14.935130 0.118844 0.768062 0.629251 
35.866940 11.219630 -15.532880 0.129615 0.767577 0.627715 
36.511391 11.029560 -15.431030 0.129826 0.772359 0.621777 
36.209820 10.643600 -14.873250 0.119958 0.772803 0.623206 
36.245731 11.617240 -16.100550 0.140120 0.767239 0.625868 
36.688751 12.030350 -16.703871 0.150413 0.768240 0.622240 
37.389130 11.738820 -16.528290 0.151598 0.773258 0.615703 
36.902069 11.371840 -15.952970 0.141233 0.772682 0.618883 
37.229210 12.477000 -17.377701 0.163869 0.768555 0.618443 
37.838921 12.890850 -18.096020 0.175989 0.769791 0.613555 
38.574501 12.466130 -17.787420 0.174876 0.775135 0.607112 
37.964642 12.104880 -17.138430 0.162945 0.774447 0.611295 
38.537659 13.271930 -18.802490 0.186337 0.770715 0.609325 
39.403111 13.630200 -19.552420 0.198677 0.772477 0.603164 
40.065971 13.030790 -19.001209 0.194761 0.778253 0.596984 
39.257729 12.764220 -18.379271 0.184863 0.776550 0.602325 
40.453468 13.802760 -20.160610 0.208279 0.775877 0.595513 
41.459660 13.884270 -20.662821 0.214941 0.779264 0.588683 
41.864700 13.311100 -20.061609 0.210687 0.783897 0.584052 
40.959061 13.204280 -19.564520 0.203959 0.780120 0.591451 
42.418041 13.925930 -21.104111 0.220969 0.781793 0.583072 
43.364079 13.937660 -21.506880 0.226585 0.784723 0.576947 
43.688751 13.385010 -20.881701 0.221766 0.789033 0.572928 
42.771858 13.372150 -20.501829 0.216047 0.786407 0.578694 
44.291752 13.923660 -21.883499 0.230825 0.787262 0.571785 
45.218128 13.902810 -22.246111 0.235952 0.789193 0.567011 
45.530239 13.347490 -21.605810 0.230526 0.794711 0.561510 
44.608608 13.375770 -21.257170 0.226761 0.791867 0.567032 
46.134239 13.872770 -22.620951 0.237839 0.792353 0.561792 
47.024349 13.851870 -22.992531 0.240174 0.794792 0.557335 
47.365749 13.286530 -22.322399 0.235733 0.799372 0.552662 
46.452190 13.314600 -21.961220 0.233992 0.796958 0.556871 
47.924320 13.841330 -23.380510 0.241945 0.796370 0.554308 
48.777351 13.848890 -23.800970 0.242623 0.797751 0.552021 
49.193649 13.298200 -23.194490 0.237584 0.803461 0.545897 
48.307999 13.273050 -22.731791 0.237033 0.802174 0.548026 
49.563999 13.890810 -24.232401 0.243046 0.799405 0.549437 
50.283680 13.932840 -24.650600 0.244212 0.800417 0.547442 
50.638470 13.495130 -24.185249 0.240947 0.803795 0.543929 
49.972969 13.388210 -23.699989 0.239154 0.803282 0.545475 
50.918900 13.950460 -25.001329 0.245205 0.801412 0.545539 
51.483181 13.917740 -25.240040 0.244973 0.803235 0.542956 
51.494221 13.674780 -24.886040 0.243049 0.804222 0.542360 
51.153938 13.594890 -24.596170 0.242148 0.804214 0.542775 
52.065559 13.772950 -25.326281 0.244302 0.804355 0.541599 
51.905041 13.498410 -24.821659 0.242067 0.806325 0.539669 
49.467930 10.379510 -18.764429 0.198094 0.830917 0.519938 
49.408550 10.909850 -19.604660 0.206370 0.825977 0.524570 
49.479172 9.876934 -17.948999 0.187861 0.836885 0.514132 
48.524300 10.021660 -17.782120 0.187877 0.833025 0.520357 
48.480099 10.527900 -18.581530 0.196772 0.828232 0.524702 
48.405849 11.039570 -19.379280 0.206910 0.822003 0.530565 
49.460098 9.413431 -17.156130 0.177684 0.842168 0.509098 
49.433380 8.963487 -16.356529 0.168742 0.846003 0.505772 
48.499691 9.100277 -16.251141 0.168831 0.842425 0.511680 
48.526299 9.545486 -17.015060 0.178401 0.837835 0.515952 
49.387878 8.509038 -15.542160 0.158441 0.851152 0.500436 
49.317032 8.068451 -14.745690 0.149775 0.855085 0.496384 
48.411072 8.198497 -14.660960 0.149445 0.851476 0.502648 
48.457439 8.649674 -15.456760 0.158760 0.846848 0.507586 
49.238651 7.649464 -13.949540 0.140600 0.859013 0.492268 
49.176121 7.224262 -13.143240 0.132218 0.863305 0.487055 
48.265148 7.351381 -13.105220 0.131805 0.860255 0.492533 
48.339989 7.761705 -13.885820 0.139636 0.856339 0.497177 
49.105579 6.795846 -12.329050 0.121562 0.868335 0.480850 
49.010670 6.372591 -11.522110 0.114551 0.871820 0.476244 
48.112701 6.492953 -11.478220 0.113966 0.868776 0.481914 
48.194500 6.924512 -12.295400 0.122883 0.864598 0.487207 
48.901180 5.961468 -10.708750 0.106656 0.875101 0.472040 
48.787682 5.557594 -9.897285 0.097067 0.878353 0.468052 
47.866619 5.644194 -9.878344 0.094623 0.875169 0.474474 
47.995499 6.063515 -10.668940 0.104112 0.872299 0.477761 
48.664600 5.151864 -9.091944 0.087813 0.881285 0.464354 
48.539539 4.748899 -8.279996 0.078896 0.884467 0.459885 
47.652309 4.826978 -8.294339 0.076581 0.880623 0.467589 
47.754391 5.238490 -9.094225 0.085927 0.877678 0.471484 
48.420898 4.345995 -7.461766 0.068708 0.887859 0.454956 
48.310081 3.937906 -6.636402 0.056332 0.891648 0.449210 
47.395779 4.012138 -6.668870 0.057691 0.887258 0.457652 
47.531898 4.414634 -7.484918 0.068056 0.884044 0.462423 
48.186878 3.531352 -5.819287 0.045775 0.895188 0.443331 
48.044941 3.135628 -5.004017 0.033781 0.898852 0.436949 
47.123959 3.197614 -5.039216 0.033891 0.894364 0.446055 
47.262058 3.609564 -5.858685 0.045274 0.890876 0.451984 
47.899448 2.749032 -4.178847 0.021219 0.903448 0.428173 
47.761219 2.349595 -3.341629 0.008446 0.907873 0.419160 
46.809940 2.395524 -3.423866 0.010569 0.903183 0.429125 
46.968418 2.792064 -4.241285 0.022936 0.898626 0.438115 
47.619438 1.951512 -2.508283 -0.002565 0.911541 0.411202 
47.472519 1.549886 -1.644202 -0.010343 0.914875 0.403605 
46.479950 1.546112 -1.678889 -0.011060 0.911356 0.411470 
46.651932 1.986135 -2.580093 -0.000255 0.907580 0.419878 
47.353550 1.134719 -0.752637 -0.020894 0.918538 0.394779 
46.286652 1.101379 -0.772906 -0.021282 0.915639 0.401437 
-0.907075 12.607360 -13.303900 0.037848 0.636117 0.770664 
-0.337301 11.947630 -12.910350 0.040380 0.644544 0.763500 
-1.195028 11.473760 -12.558550 0.036920 0.650476 0.758629 
-1.727726 12.108030 -12.951060 0.034873 0.642263 0.765691 
0.225243 11.288490 -12.503520 0.041892 0.653354 0.755892 
0.819495 10.654380 -12.079200 0.043241 0.663405 0.747010 
-0.091403 10.189760 -11.689770 0.040284 0.669784 0.741462 
-0.666466 10.839030 -12.136210 0.039035 0.659430 0.750752 
1.480999 10.033480 -11.659400 0.043621 0.672591 0.738728 
2.176005 9.459330 -11.253740 0.044725 0.681265 0.730669 
1.320824 9.007245 -10.820410 0.042614 0.687439 0.724991 
0.595047 9.601340 -11.269220 0.041582 0.677957 0.733925 
3.722456 9.313757 -11.265370 0.048163 0.683970 0.727919 
2.876626 8.889095 -10.828170 0.045751 0.690705 0.721688 
4.434271 8.737133 -10.842650 0.048502 0.692580 0.719709 
3.582955 8.322051 -10.408150 0.045439 0.700417 0.712286 
2.731962 7.930848 -10.008390 0.044514 0.706441 0.706370 
2.024686 8.441824 -10.389420 0.043351 0.697236 0.715530 
4.556250 9.724691 -11.672340 0.050691 0.678387 0.732954 
5.362211 10.184770 -12.086440 0.053296 0.673160 0.737573 
6.134518 9.581793 -11.715520 0.052292 0.681355 0.730083 
5.302940 9.146218 -11.277340 0.050547 0.686422 0.725445 
6.121695 10.686620 -12.529850 0.055837 0.667637 0.742390 
6.829178 11.210710 -12.969150 0.058325 0.659617 0.749335 
7.597608 10.643840 -12.643580 0.056795 0.668932 0.741150 
6.897045 10.095860 -12.168470 0.054608 0.675558 0.735282 
7.472900 11.741210 -13.410930 0.059768 0.653018 0.754980 
8.038823 12.263490 -13.839920 0.062490 0.647122 0.759821 
8.787715 11.826130 -13.606440 0.061372 0.653882 0.754103 
8.233148 11.230990 -13.126070 0.058539 0.660785 0.748289 
10.476730 13.740570 -15.141710 0.070458 0.636379 0.768152 
9.564712 13.788590 -15.077670 0.069723 0.634159 0.770053 
11.524000 13.745870 -15.257510 0.071042 0.638732 0.766143 
11.826840 12.649160 -14.516910 0.065163 0.649498 0.757566 
10.512960 12.896950 -14.551600 0.066332 0.643421 0.762633 
9.579097 13.083970 -14.583590 0.066703 0.640399 0.765140 
12.545260 13.999880 -15.545860 0.073450 0.638942 0.765741 
13.455310 14.312680 -15.868060 0.075324 0.639649 0.764967 
13.959890 13.587970 -15.390290 0.070814 0.646269 0.759817 
13.017920 13.144790 -14.991020 0.068061 0.646893 0.759537 
14.272860 14.630620 -16.181841 0.078056 0.640684 0.763827 
15.015400 14.951720 -16.489660 0.082140 0.640155 0.763842 
14.787490 14.003500 -15.772480 0.074239 0.646074 0.759656 
15.710480 15.311750 -16.821569 0.086231 0.640648 0.762978 
16.337040 15.657530 -17.154039 0.090233 0.640952 0.762259 
-49.496429 14.607600 -17.500620 -0.102366 0.724049 0.682110 
-48.820889 14.453210 -17.263399 -0.097351 0.724283 0.682596 
-48.113838 14.232500 -16.971720 -0.091550 0.725111 0.682519 
-47.390831 13.979150 -16.653160 -0.085990 0.727756 0.680424 
-46.643169 13.712990 -16.320829 -0.082824 0.728481 0.680041 
-45.854851 13.399130 -15.945890 -0.076814 0.732352 0.676580 
48.840179 6.732760 46.210140 -0.085514 0.731393 -0.676574 
47.974751 7.041051 46.589520 -0.081552 0.722666 -0.686370 
47.395069 6.379855 45.994339 -0.089766 0.725032 -0.682840 
48.268242 6.100074 45.633179 -0.095551 0.736979 -0.669128 
47.093590 7.329436 46.928619 -0.077824 0.714109 -0.695695 
46.206779 7.613896 47.246910 -0.074345 0.705972 -0.704327 
45.588421 6.893570 46.627739 -0.082272 0.707629 -0.701778 
46.486752 6.626952 46.303551 -0.086232 0.716357 -0.692385 
45.865459 8.612898 48.164150 -0.064589 0.697852 -0.713324 
45.334728 7.916797 47.558350 -0.071705 0.698500 -0.712008 
44.975849 8.904243 48.448429 -0.063571 0.691845 -0.719242 
44.481441 8.215815 47.875870 -0.069255 0.691491 -0.719057 
43.975368 7.554439 47.347961 -0.074527 0.692085 -0.717958 
44.760891 7.213292 46.992310 -0.078584 0.699733 -0.710070 
46.336971 9.309539 48.773029 -0.058981 0.697650 -0.714007 
46.754902 10.025800 49.395950 -0.053160 0.698658 -0.713478 
45.809052 10.249650 49.615921 -0.053429 0.692112 -0.719810 
45.424709 9.573334 49.033192 -0.057634 0.692137 -0.719462 
47.099140 10.736860 50.035809 -0.049093 0.697841 -0.714568 
47.368038 11.456900 50.669670 -0.045331 0.698390 -0.714280 
46.416962 11.645500 50.835949 -0.045396 0.692836 -0.719665 
46.132980 10.950340 50.224949 -0.048812 0.691993 -0.720252 
47.605850 12.169120 51.299171 -0.042275 0.697592 -0.715246 
47.816471 12.859660 51.918018 -0.040989 0.697673 -0.715243 
46.883652 13.013690 52.031200 -0.040069 0.692669 -0.720142 
46.658920 12.338090 51.444172 -0.042396 0.692193 -0.720466 
47.999619 13.551680 52.527031 -0.039124 0.697771 -0.715252 
48.154942 14.229890 53.118752 -0.037710 0.697361 -0.715728 
47.243500 14.379750 53.219791 -0.037696 0.692323 -0.720603 
47.081120 13.706190 52.629570 -0.038702 0.693572 -0.719347 
48.285980 14.928900 53.710838 -0.036833 0.697306 -0.715826 
48.401421 15.640190 54.314220 -0.035984 0.695797 -0.717337 
47.476521 15.760840 54.406620 -0.035156 0.692106 -0.720939 
47.371201 15.070050 53.804691 -0.035818 0.692387 -0.720637 
48.497410 16.347950 54.911942 -0.035404 0.695935 -0.717232 
48.568779 17.070520 55.521111 -0.034810 0.695564 -0.717620 
47.567589 17.177210 55.599030 -0.033886 0.690578 -0.722464 
47.536282 16.448219 54.987061 -0.034559 0.691914 -0.721152 
48.626678 17.808241 56.130169 -0.034322 0.694298 -0.718869 
47.542450 17.940069 56.247341 -0.033189 0.689589 -0.723440 
-33.743519 14.218600 -15.315910 -0.055290 0.674863 0.735869 
-32.794800 14.230830 -15.200040 -0.054014 0.670914 0.739566 
-32.804119 13.523650 -14.555980 -0.049970 0.688320 0.723684 
-33.818741 13.461610 -14.629460 -0.051577 0.691891 0.720158 
-31.779301 14.313990 -15.071650 -0.052040 0.666613 0.743586 
-30.656630 14.375930 -14.985930 -0.048392 0.660870 0.748939 
-30.578791 13.692380 -14.391830 -0.043021 0.677487 0.734275 
-31.734480 13.625990 -14.450880 -0.045810 0.682210 0.729719 
-29.443701 14.438570 -14.948260 -0.044240 0.654613 0.754668 
-28.287590 14.445120 -15.016590 -0.041603 0.648244 0.760296 
-28.227751 13.747040 -14.417670 -0.036625 0.664343 0.746530 
-29.365080 13.746130 -14.353500 -0.040826 0.671403 0.739967 
-27.327700 14.457540 -15.085330 -0.039388 0.644092 0.763933 
-26.367559 14.474140 -15.157700 -0.037716 0.637773 0.769300 
-26.288940 13.769720 -14.554420 -0.033439 0.652920 0.756688 
-27.258190 13.758020 -14.485750 -0.035138 0.657775 0.752395 
-25.407221 14.491710 -15.230900 -0.034935 0.632563 0.773720 
-24.481310 14.498730 -15.293290 -0.031434 0.630861 0.775259 
-24.365410 13.796620 -14.693810 -0.026340 0.643441 0.765042 
-25.320440 13.782860 -14.624310 -0.030032 0.648454 0.760662 
-23.599190 14.482140 -15.321020 -0.029491 0.626702 0.778700 
-22.781750 14.441430 -15.285940 -0.026423 0.626065 0.779323 
-22.533390 13.758010 -14.729940 -0.022567 0.636729 0.770758 
-23.434010 13.802380 -14.730930 -0.024502 0.638834 0.768955 
-21.897570 14.432390 -15.185790 -0.024117 0.625220 0.780075 
-20.852880 14.465500 -15.166800 -0.020677 0.622150 0.782625 
-20.620800 13.762550 -14.702640 -0.015913 0.632434 0.774451 
-21.621059 13.715000 -14.701010 -0.020093 0.635632 0.771731 
-19.870710 14.555650 -15.204510 -0.017492 0.618090 0.785912 
-19.591270 13.867050 -14.746330 -0.012742 0.628350 0.777827 
-46.844509 -0.005994 7.262324 0.089968 0.921423 0.378001 
-46.011730 -0.038570 7.095371 0.084323 0.919425 0.384120 
-45.762371 -0.486122 8.005427 0.088100 0.923509 0.373323 
-46.752190 -0.320569 7.946121 0.093281 0.924409 0.369819 
-45.141151 0.018219 6.748314 0.077401 0.916399 0.392711 
-44.327240 0.085201 6.379206 0.071033 0.913673 0.400195 
-44.000130 -0.307682 7.107006 0.072714 0.916653 0.393014 
-44.803928 -0.397159 7.518703 0.079644 0.919785 0.384255 
-43.849880 0.570530 5.300453 0.062839 0.908360 0.413441 
-43.538849 0.163304 6.042949 0.065341 0.911227 0.406688 
-43.038528 0.631098 5.022240 0.057601 0.905773 0.419831 
-42.756512 0.230608 5.743647 0.060065 0.908419 0.413724 
-42.484440 -0.136320 6.425623 0.061721 0.911233 0.407241 
-43.229279 -0.220289 6.746353 0.066894 0.914035 0.400083 
-44.157150 0.977936 4.570877 0.060444 0.905803 0.419366 
-44.465858 1.408820 3.797047 0.057668 0.903183 0.425365 
-43.606682 1.465579 3.515445 0.052731 0.900488 0.431672 
-43.321400 1.041825 4.280907 0.055941 0.903461 0.425004 
-44.787601 1.840662 3.025582 0.053866 0.900738 0.431010 
-45.105228 2.297427 2.213604 0.050510 0.898182 0.436713 
-44.198318 2.349285 1.937172 0.047000 0.895356 0.442865 
-43.898491 1.899325 2.740933 0.050174 0.898047 0.437028 
-45.404030 2.760749 1.384089 0.046556 0.895388 0.442847 
-45.714661 3.257218 0.511687 0.041247 0.892844 0.448474 
-44.769482 3.336422 0.190812 0.039105 0.890309 0.453674 
-44.481659 2.821138 1.107345 0.042645 0.892461 0.449105 
-46.097462 3.762317 -0.384493 0.037113 0.890740 0.452996 
-46.645828 4.297445 -1.333879 0.031124 0.888875 0.457092 
-45.497269 4.555994 -1.917356 0.029212 0.885026 0.464624 
-45.071571 3.853656 -0.735151 0.034453 0.887443 0.459628 
-47.462688 4.738047 -2.169421 0.026154 0.887932 0.459231 
-48.233471 5.057996 -2.822196 0.020985 0.887946 0.459469 
-47.608742 5.354290 -3.359356 0.019443 0.884757 0.465647 
-46.690071 5.028844 -2.747545 0.024170 0.884840 0.465268 
-48.944618 5.337669 -3.349579 0.016714 0.888083 0.459380 
-49.620449 5.610747 -3.863844 0.012382 0.888058 0.459564 
-49.111370 5.903974 -4.395307 0.010133 0.884314 0.466783 
-48.387871 5.635273 -3.888461 0.014680 0.884514 0.466283 
-50.243649 5.869846 -4.352379 0.008578 0.887692 0.460358 
-50.813309 6.095582 -4.778603 0.004192 0.887068 0.461619 
-50.410671 6.365114 -5.268649 0.002596 0.883554 0.468322 
-49.780811 6.147007 -4.854979 0.006079 0.884048 0.467357 
-50.746288 6.856610 -6.182137 -0.002737 0.880292 0.474424 
-51.033932 6.545852 -5.612972 0.000150 0.883972 0.467540 
-50.464451 7.197611 -6.800394 -0.005371 0.875809 0.482628 
-49.727180 7.016023 -6.447481 -0.002333 0.875824 0.482625 
-50.061020 6.675733 -5.835677 0.000676 0.879719 0.475494 
-50.175720 7.560677 -7.453641 -0.007178 0.871561 0.490234 
-49.863811 7.939463 -8.134876 -0.010950 0.865769 0.500324 
-49.044552 7.754366 -7.773332 -0.008629 0.866092 0.499810 
-49.394131 7.377626 -7.096775 -0.004585 0.871342 0.490656 
-49.518799 8.328320 -8.833571 -0.014513 0.860028 0.510040 
-49.129211 8.716656 -9.535517 -0.018587 0.853323 0.521051 
-48.309830 8.509569 -9.162856 -0.015797 0.853539 0.520790 
-48.681950 8.131498 -8.462485 -0.011891 0.859848 0.510412 
-48.703529 9.095890 -10.239580 -0.023241 0.844387 0.535230 
-48.270161 9.444140 -10.887840 -0.028499 0.835011 0.549495 
-47.497200 9.227823 -10.501440 -0.024397 0.837022 0.546624 
-47.913631 8.879584 -9.852002 -0.019941 0.846235 0.532437 
-47.820660 9.787774 -11.478720 -0.032894 0.824564 0.564812 
-47.316368 10.156040 -12.087100 -0.038647 0.812554 0.581603 
-46.593449 9.912425 -11.694270 -0.035613 0.814849 0.578579 
-47.068470 9.562095 -11.101810 -0.030452 0.826501 0.562111 
-46.791721 10.514830 -12.695610 -0.045966 0.800534 0.597522 
-46.257950 10.871460 -13.279000 -0.050561 0.787251 0.614556 
-45.597271 10.611220 -12.857360 -0.047507 0.791122 0.609811 
-46.097820 10.259790 -12.283270 -0.043316 0.802002 0.595748 
-45.691059 11.223270 -13.849780 -0.054915 0.774882 0.629716 
-45.124550 11.501990 -14.293700 -0.057651 0.766196 0.640016 
-44.432529 11.254060 -13.923650 -0.054189 0.768266 0.637834 
-45.033630 10.964310 -13.430130 -0.051881 0.779669 0.624039 
-44.816002 11.540410 -14.405020 -0.058359 0.762697 0.644118 
-44.415909 11.757120 -14.453770 -0.059415 0.758035 0.649502 
-43.794399 11.477470 -14.052150 -0.054973 0.762098 0.645123 
-44.159210 11.286810 -14.042480 -0.055061 0.766218 0.640218 
-44.314831 12.660200 -15.120830 -0.066840 0.741921 0.667147 
-43.674831 12.256480 -14.709360 -0.062676 0.747534 0.661259 
-42.926849 12.729050 -14.916930 -0.064899 0.735614 0.674285 
-42.358749 12.302120 -14.501160 -0.059203 0.742309 0.667437 
-43.058189 11.924490 -14.316120 -0.057262 0.751930 0.656751 
-45.075829 13.039620 -15.538960 -0.071367 0.737146 0.671954 
15.386630 13.372190 -15.366430 0.069786 0.652407 0.754649 
16.047760 12.772710 -14.986390 0.065874 0.659383 0.748916 
15.298260 12.249320 -14.557800 0.061436 0.662461 0.746573 
14.596140 12.886660 -14.952560 0.065676 0.653709 0.753891 
16.750481 12.229250 -14.643430 0.061516 0.666427 0.743028 
17.494579 11.703170 -14.298970 0.057983 0.673109 0.737266 
16.785521 11.115750 -13.830570 0.054319 0.676964 0.734009 
16.030359 11.668380 -14.195890 0.057668 0.669723 0.740369 
18.275650 11.180080 -13.950190 0.054841 0.680290 0.730889 
19.011681 10.734740 -13.650570 0.051406 0.686259 0.725539 
18.265120 10.165320 -13.202980 0.047610 0.689222 0.722984 
17.548429 10.604120 -13.491410 0.050833 0.683855 0.727845 
19.770830 10.344870 -13.327840 0.048596 0.693066 0.719234 
20.619471 9.897089 -12.926720 0.046135 0.700040 0.712612 
19.779980 9.302818 -12.429270 0.042816 0.703289 0.709614 
18.987000 9.768611 -12.843940 0.045348 0.695986 0.716622 
21.478081 9.422801 -12.491320 0.044400 0.707302 0.705516 
22.358999 8.895703 -11.964730 0.040996 0.717801 0.695041 
21.319790 8.360580 -11.512930 0.036995 0.721464 0.691463 
20.566620 8.841915 -12.014440 0.040429 0.710538 0.702497 
27.730801 8.968185 -12.052900 0.051882 0.741474 0.668973 
26.646839 8.919853 -11.965940 0.046763 0.736864 0.674422 
28.766130 8.973134 -12.122260 0.056497 0.746858 0.662579 
28.807560 8.342039 -11.454320 0.048132 0.755861 0.652961 
27.817739 8.307549 -11.385200 0.044481 0.751593 0.658125 
26.749689 8.238282 -11.283480 0.040594 0.747580 0.662930 
29.763571 8.992024 -12.179730 0.059401 0.751321 0.657258 
30.726410 8.985152 -12.245520 0.061389 0.757436 0.650017 
30.757940 8.358232 -11.566200 0.052850 0.765888 0.640799 
29.791040 8.350926 -11.500920 0.050563 0.760816 0.646994 
31.642071 8.958515 -12.296240 0.063677 0.763011 0.643241 
32.523689 8.942584 -12.339420 0.067072 0.768113 0.636791 
32.581600 8.360188 -11.695910 0.058270 0.774379 0.630033 
31.687590 8.362832 -11.637430 0.054381 0.770684 0.634893 
33.471218 8.935404 -12.414580 0.071170 0.773653 0.629600 
34.337608 8.921915 -12.507770 0.075749 0.778398 0.623184 
34.383911 8.403918 -11.899330 0.067973 0.783271 0.617954 
33.494141 8.378205 -11.779510 0.062709 0.779289 0.623519 
35.153671 8.936867 -12.612340 0.080433 0.782394 0.617568 
35.970928 8.969099 -12.758170 0.086393 0.786362 0.611695 
36.065571 8.486582 -12.174480 0.078455 0.791116 0.606614 
35.222790 8.429459 -12.017400 0.072548 0.787615 0.611882 
36.600891 9.440323 -13.464290 0.099238 0.785173 0.611273 
36.744148 9.008493 -12.934880 0.092073 0.789502 0.606803 
37.225800 9.490456 -13.631900 0.104346 0.789150 0.605272 
37.454411 9.070452 -13.135290 0.097343 0.793310 0.600985 
37.678749 8.642496 -12.628790 0.092121 0.798331 0.595131 
36.896729 8.561498 -12.390890 0.084707 0.794679 0.601090 
37.546230 11.076680 -15.714250 0.139170 0.777744 0.612981 
37.127869 10.765360 -15.226100 0.129568 0.777328 0.615608 
38.051899 11.408980 -16.261560 0.151707 0.778767 0.608693 
38.688400 11.029030 -15.936540 0.148807 0.784843 0.601563 
38.157021 10.728700 -15.419510 0.137321 0.783609 0.605888 
