43.688011 9.707063 -148.408600 -0.039662 -0.654390 0.755117 
44.575539 9.596110 -148.450104 -0.037833 -0.651506 0.757700 
42.726860 9.267923 -148.836594 -0.043412 -0.653930 0.755308 
41.838039 9.378269 -148.790497 -0.044516 -0.657506 0.752133 
41.914398 9.920349 -148.304306 -0.042012 -0.660554 0.749603 
42.801220 9.810605 -148.356796 -0.041057 -0.657457 0.752373 
40.955921 9.491859 -148.744904 -0.045445 -0.660022 0.749870 
40.087990 9.603789 -148.699997 -0.045857 -0.663070 0.747151 
40.165310 10.148900 -148.206802 -0.042954 -0.666210 0.744527 
41.034561 10.033390 -148.254898 -0.042774 -0.663183 0.747234 
39.225578 9.711049 -148.658798 -0.046148 -0.666005 0.744519 
38.356258 9.809670 -148.612106 -0.045723 -0.669670 0.741250 
38.436420 10.361980 -148.102600 -0.042097 -0.672662 0.738752 
39.307251 10.258100 -148.157806 -0.042451 -0.669436 0.741656 
37.497631 9.910669 -148.568802 -0.045191 -0.673064 0.738202 
36.630100 10.014560 -148.526901 -0.044696 -0.676306 0.735263 
36.713242 10.575010 -148.003693 -0.041575 -0.678436 0.733483 
37.574280 10.468020 -148.053101 -0.042048 -0.675587 0.736080 
35.760929 10.124010 -148.479797 -0.044257 -0.680212 0.731678 
34.890961 10.239260 -148.426300 -0.043596 -0.683005 0.729112 
34.970299 10.806300 -147.893005 -0.040407 -0.684794 0.727615 
35.837341 10.689230 -147.948502 -0.041133 -0.681924 0.730266 
34.030220 10.350850 -148.372299 -0.042663 -0.685886 0.726458 
33.167351 10.464850 -148.316193 -0.042169 -0.688333 0.724168 
33.233978 11.033670 -147.771698 -0.039657 -0.689447 0.723250 
34.100658 10.920040 -147.834305 -0.039985 -0.687207 0.725360 
32.303619 10.580870 -148.252304 -0.041806 -0.690494 0.722129 
31.431339 10.702860 -148.182495 -0.042046 -0.692405 0.720283 
31.490650 11.272430 -147.628098 -0.040042 -0.693165 0.719666 
32.365601 11.150680 -147.703003 -0.039682 -0.691459 0.721325 
30.559481 10.823070 -148.115005 -0.043202 -0.693998 0.718679 
29.671289 10.951280 -148.040802 -0.045021 -0.695521 0.717094 
29.732700 11.526130 -147.480804 -0.043120 -0.695974 0.716771 
30.615490 11.397300 -147.556396 -0.041227 -0.694645 0.718171 
28.778151 11.084620 -147.964905 -0.047699 -0.696910 0.715571 
27.873060 11.222150 -147.893600 -0.051394 -0.698321 0.713937 
27.932140 11.795420 -147.324905 -0.049355 -0.698294 0.714107 
28.835911 11.659340 -147.400696 -0.045827 -0.697201 0.715409 
26.960569 11.356100 -147.826202 -0.055707 -0.699267 0.712687 
26.043131 11.496960 -147.758606 -0.060251 -0.700493 0.711112 
26.114639 12.072180 -147.190094 -0.058038 -0.700351 0.711435 
27.029209 11.930800 -147.255493 -0.053837 -0.699268 0.712830 
25.132610 11.643080 -147.696793 -0.064295 -0.701336 0.709926 
24.222160 11.785690 -147.647705 -0.067696 -0.702566 0.708392 
24.299900 12.361350 -147.065399 -0.065398 -0.702744 0.708430 
25.202259 12.215730 -147.122498 -0.061963 -0.701537 0.709934 
23.342230 11.940070 -147.584106 -0.069860 -0.703818 0.706937 
22.474119 12.098510 -147.519806 -0.071611 -0.705140 0.705443 
22.534790 12.653710 -146.955093 -0.069915 -0.705365 0.705388 
23.406380 12.506840 -147.011993 -0.068084 -0.704039 0.706890 
21.603029 12.260660 -147.455902 -0.072730 -0.706125 0.704342 
20.721331 12.415660 -147.382202 -0.074641 -0.707151 0.703112 
20.774630 12.974010 -146.809402 -0.073618 -0.707429 0.702940 
21.664471 12.810550 -146.886902 -0.071189 -0.706588 0.704035 
19.829840 12.569640 -147.313202 -0.078973 -0.708123 0.701659 
18.906200 12.734040 -147.242706 -0.084963 -0.709220 0.699849 
18.962099 13.285420 -146.681396 -0.083448 -0.708797 0.700459 
19.874121 13.132270 -146.738297 -0.077742 -0.708060 0.701860 
17.962420 12.901440 -147.184006 -0.091934 -0.710375 0.697793 
17.014820 13.047710 -147.156494 -0.100509 -0.712118 0.694828 
17.078430 13.604980 -146.580200 -0.097015 -0.711485 0.695972 
18.015091 13.446860 -146.622299 -0.089883 -0.709677 0.698771 
16.085260 13.202290 -147.159607 -0.108188 -0.714081 0.691653 
15.168010 13.356200 -147.174393 -0.115569 -0.716886 0.687546 
15.245480 13.936050 -146.584305 -0.110824 -0.715913 0.689337 
16.156969 13.777650 -146.576096 -0.104847 -0.713504 0.692762 
14.269180 13.496340 -147.199097 -0.119476 -0.720104 0.683502 
13.406810 13.603720 -147.237198 -0.124581 -0.723050 0.679469 
13.490560 14.187770 -146.608398 -0.116815 -0.721616 0.682367 
14.356300 14.071860 -146.600204 -0.114164 -0.718392 0.686207 
12.492090 13.739670 -147.255295 -0.126642 -0.727274 0.674562 
11.556950 13.857910 -147.279099 -0.130624 -0.730709 0.670076 
11.662440 14.439560 -146.626297 -0.124435 -0.730141 0.671870 
12.586100 14.314140 -146.611099 -0.120366 -0.726039 0.677037 
10.591550 13.945190 -147.298401 -0.133871 -0.734477 0.665299 
9.617374 14.018350 -147.337204 -0.136230 -0.736746 0.662304 
9.764380 14.625110 -146.640106 -0.131783 -0.737184 0.662716 
10.716510 14.536770 -146.631104 -0.129519 -0.734532 0.666099 
8.644433 14.144800 -147.431595 -0.139695 -0.740606 0.657258 
7.726758 14.331230 -147.530106 -0.147263 -0.741266 0.654858 
7.919909 14.953640 -146.712708 -0.142892 -0.738303 0.659159 
8.818393 14.749070 -146.668503 -0.135415 -0.738299 0.660740 
7.235133 14.619830 -147.356506 -0.152251 -0.741025 0.653989 
6.567520 14.933180 -147.174103 -0.158482 -0.740186 0.653458 
6.275394 15.429090 -146.615799 -0.159037 -0.735164 0.658970 
7.099224 15.217090 -146.685501 -0.151216 -0.735768 0.660135 
5.366937 15.027180 -147.235703 -0.171537 -0.741672 0.648459 
4.327892 15.123360 -147.339401 -0.177330 -0.745014 0.643046 
4.412809 15.681880 -146.712097 -0.169940 -0.741043 0.649596 
5.359643 15.571870 -146.643097 -0.166487 -0.736611 0.655505 
3.382904 15.253740 -147.485199 -0.181722 -0.749269 0.636847 
2.457811 15.403890 -147.653000 -0.188140 -0.755128 0.628001 
2.577303 15.943840 -146.976807 -0.178262 -0.752492 0.634018 
3.489585 15.816490 -146.837708 -0.173512 -0.745524 0.643496 
1.534736 15.545240 -147.823502 -0.198073 -0.759674 0.619405 
0.624380 15.655910 -147.987198 -0.205013 -0.763989 0.611793 
0.754474 16.172670 -147.292099 -0.195142 -0.761074 0.618616 
1.664527 16.062229 -147.125900 -0.186892 -0.756543 0.626668 
-0.203468 15.756490 -148.125900 -0.211172 -0.768824 0.603587 
-1.041966 15.853650 -148.270599 -0.215600 -0.772367 0.597466 
-0.925024 16.375780 -147.571198 -0.207078 -0.769292 0.604407 
-0.076991 16.272970 -147.430603 -0.202238 -0.764874 0.611611 
-1.891260 15.972080 -148.435699 -0.222357 -0.775897 0.590373 
-2.759709 16.099251 -148.611694 -0.230370 -0.778891 0.583316 
-2.647593 16.612780 -147.878098 -0.223872 -0.776373 0.589175 
-1.783739 16.484079 -147.718307 -0.214411 -0.773153 0.596878 
-3.638643 16.224581 -148.788193 -0.239964 -0.781872 0.575407 
-4.496070 16.354349 -148.968201 -0.246740 -0.784277 0.569235 
-4.411903 16.856581 -148.218506 -0.240024 -0.780993 0.576574 
-3.530589 16.733959 -148.044205 -0.233029 -0.779214 0.581827 
-5.330342 16.486219 -149.151901 -0.253973 -0.786035 0.563602 
-6.153350 16.621040 -149.361496 -0.256681 -0.787904 0.559752 
-6.086102 17.140249 -148.593704 -0.250309 -0.784967 0.566721 
-5.255595 16.998280 -148.401794 -0.246107 -0.781991 0.572645 
-6.969171 16.715420 -149.586700 -0.262919 -0.789973 0.553910 
-7.721027 16.896589 -149.650497 -0.261374 -0.791459 0.552519 
-7.788339 17.412640 -148.901199 -0.253113 -0.788460 0.560594 
-6.926185 17.252069 -148.769897 -0.254512 -0.787593 0.561178 
127.072899 2.020254 -174.169907 0.302986 -0.828349 0.471209 
127.929802 2.008240 -174.500397 0.291909 -0.827804 0.479093 
126.219704 2.036103 -173.835007 0.323648 -0.829081 0.455935 
126.334602 2.505161 -173.096100 0.336832 -0.827310 0.449559 
127.211700 2.517574 -173.453598 0.319915 -0.826543 0.463120 
128.184692 2.507501 -173.823303 0.307557 -0.824721 0.474599 
125.409897 1.917643 -173.421799 0.331676 -0.832556 0.443668 
124.618698 1.782471 -173.007294 0.348516 -0.833957 0.427846 
124.757500 2.222703 -172.263596 0.358428 -0.829191 0.428919 
125.544502 2.358360 -172.673599 0.343982 -0.829046 0.440861 
123.863602 1.605500 -172.583603 0.369228 -0.832781 0.412490 
123.127800 1.404033 -172.161301 0.384317 -0.832756 0.398520 
123.288300 1.817789 -171.406403 0.391971 -0.827031 0.402963 
124.011200 2.024471 -171.830795 0.378722 -0.828237 0.413028 
122.391701 1.219473 -171.767105 0.387547 -0.834249 0.392219 
121.680702 1.029486 -171.445007 0.382369 -0.837288 0.390823 
121.863297 1.451473 -170.718994 0.387415 -0.829794 0.401687 
122.558899 1.645767 -171.009003 0.394248 -0.827012 0.400774 
120.982300 0.841236 -171.149597 0.373316 -0.840222 0.393271 
120.276100 0.664501 -170.857803 0.361004 -0.843543 0.397633 
120.456902 1.090105 -170.125702 0.364783 -0.835043 0.411870 
121.165703 1.260956 -170.418900 0.377305 -0.832879 0.404911 
119.568199 0.502174 -170.558594 0.345930 -0.847849 0.401851 
118.834099 0.335810 -170.265503 0.333091 -0.851418 0.405139 
119.007301 0.771720 -169.530197 0.339043 -0.841483 0.420661 
119.746300 0.934765 -169.830399 0.350826 -0.838341 0.417260 
118.085197 0.178752 -169.989899 0.317937 -0.856101 0.407440 
117.319199 0.020904 -169.751907 0.305704 -0.860260 0.408041 
117.493698 0.442324 -169.003906 0.313457 -0.848894 0.425586 
118.257301 0.603726 -169.250107 0.326189 -0.845179 0.423407 
116.546402 -0.133660 -169.536499 0.295304 -0.864546 0.406640 
115.778198 -0.309399 -169.341705 0.286481 -0.869550 0.402257 
115.953300 0.125220 -168.582703 0.294948 -0.857947 0.420634 
116.723297 0.289139 -168.787201 0.303409 -0.853064 0.424529 
115.022499 -0.486596 -169.150101 0.281180 -0.873074 0.398348 
114.263603 -0.605124 -168.920807 0.277262 -0.875556 0.395636 
114.437798 -0.184052 -168.166702 0.285878 -0.864032 0.414394 
115.186302 -0.053361 -168.399796 0.289927 -0.861419 0.417013 
113.498001 -0.696185 -168.668793 0.274699 -0.876493 0.395349 
112.731499 -0.797391 -168.397400 0.271150 -0.878316 0.393749 
112.913696 -0.390780 -167.622192 0.278956 -0.867218 0.412453 
113.675400 -0.279808 -167.909393 0.283026 -0.865110 0.414103 
111.967499 -0.925727 -168.120102 0.266250 -0.880049 0.393225 
111.195396 -1.043659 -167.834198 0.260400 -0.881672 0.393506 
111.381302 -0.629076 -167.037506 0.267631 -0.871260 0.411436 
112.150398 -0.511971 -167.328598 0.274635 -0.868530 0.412590 
110.416901 -1.154651 -167.528305 0.253122 -0.883412 0.394351 
109.624001 -1.238274 -167.179596 0.245865 -0.883700 0.398277 
109.820602 -0.795543 -166.392395 0.252935 -0.873777 0.415376 
110.604698 -0.727591 -166.735596 0.260373 -0.872749 0.412935 
108.824501 -1.252515 -166.786499 0.239336 -0.884381 0.400735 
108.035004 -1.271215 -166.408707 0.233931 -0.885039 0.402470 
108.221001 -0.853734 -165.607697 0.241754 -0.874131 0.421249 
109.015701 -0.826357 -165.993103 0.246482 -0.874569 0.417583 
107.246696 -1.295122 -166.043304 0.231852 -0.884560 0.404720 
106.470299 -1.330436 -165.682693 0.230722 -0.883912 0.406776 
106.659401 -0.906430 -164.855698 0.237334 -0.873042 0.425993 
107.432701 -0.884911 -165.233704 0.237688 -0.873475 0.424907 
105.714104 -1.355197 -165.292999 0.230564 -0.883396 0.407986 
104.954300 -1.371807 -164.906906 0.231635 -0.882439 0.409447 
105.138702 -0.924732 -164.076294 0.238222 -0.869867 0.431951 
105.898300 -0.916348 -164.467194 0.237803 -0.871743 0.428386 
104.189201 -1.397014 -164.530197 0.232210 -0.881213 0.411756 
103.420502 -1.430555 -164.157898 0.230507 -0.881263 0.412604 
103.606796 -0.970902 -163.296097 0.237798 -0.867719 0.436481 
104.374901 -0.939135 -163.688507 0.237670 -0.869319 0.433356 
102.647301 -1.455960 -163.781097 0.230439 -0.879065 0.417304 
101.862198 -1.485546 -163.393005 0.227889 -0.878914 0.419018 
102.036697 -1.025597 -162.540695 0.234368 -0.864757 0.444147 
102.829498 -1.000484 -162.907806 0.236858 -0.865966 0.440455 
101.061096 -1.520483 -163.003998 0.224849 -0.877768 0.423044 
100.258904 -1.547179 -162.609604 0.220315 -0.875961 0.429131 
100.411400 -1.026592 -161.723404 0.224192 -0.861463 0.455652 
101.227203 -1.028917 -162.123306 0.230719 -0.862534 0.450339 
99.412643 -1.510500 -162.123398 0.215707 -0.871800 0.439813 
98.559624 -1.480297 -161.637299 0.209509 -0.867530 0.451107 
98.692879 -0.924239 -160.709000 0.211510 -0.853535 0.476173 
99.551010 -0.960650 -161.208801 0.218797 -0.857618 0.465424 
97.699440 -1.455537 -161.162094 0.201325 -0.863875 0.461723 
96.817757 -1.382330 -160.712006 0.190247 -0.858919 0.475463 
96.941147 -0.812548 -159.769394 0.190689 -0.843184 0.502672 
97.824638 -0.880276 -160.231705 0.201731 -0.849034 0.488310 
95.925919 -1.301737 -160.267303 0.179891 -0.853598 0.488887 
95.022408 -1.214742 -159.815002 0.168141 -0.847560 0.503359 
95.136627 -0.639109 -158.846100 0.167108 -0.826791 0.537114 
96.044579 -0.728627 -159.315598 0.178766 -0.835856 0.519025 
94.105476 -1.100554 -159.362503 0.152821 -0.840332 0.520085 
93.182457 -0.983293 -158.903000 0.137940 -0.832256 0.536957 
93.277710 -0.368074 -157.927505 0.137776 -0.810646 0.569096 
94.213890 -0.523746 -158.375198 0.151215 -0.819029 0.553467 
92.255531 -0.846167 -158.446793 0.123870 -0.825124 0.551204 
91.329697 -0.704524 -157.991898 0.110352 -0.817413 0.565383 
91.402496 -0.019659 -157.018204 0.109894 -0.792870 0.599400 
92.339630 -0.195374 -157.472900 0.123874 -0.802167 0.584109 
90.403351 -0.512996 -157.555405 0.097477 -0.808658 0.580147 
89.486069 -0.307703 -157.127396 0.085197 -0.799957 0.593978 
89.553688 0.434401 -156.158096 0.086315 -0.772579 0.629024 
90.470139 0.206825 -156.587708 0.096723 -0.783072 0.614364 
88.577377 -0.081155 -156.714493 0.076592 -0.788602 0.610116 
87.689087 0.169314 -156.313599 0.070152 -0.778227 0.624053 
87.753998 0.957792 -155.369904 0.070328 -0.746476 0.661685 
88.648277 0.688359 -155.755707 0.077696 -0.759766 0.645538 
86.812828 0.430542 -155.923904 0.066110 -0.764911 0.640735 
85.955620 0.699498 -155.526199 0.063927 -0.753056 0.654844 
86.006493 1.526163 -154.618301 0.063539 -0.721747 0.689235 
86.872673 1.228502 -154.988907 0.065877 -0.734201 0.675728 
85.107941 0.968357 -155.120407 0.062750 -0.740748 0.668846 
84.261551 1.276002 -154.726501 0.061623 -0.727932 0.682874 
84.296387 2.147848 -153.875107 0.060653 -0.695058 0.716390 
85.148666 1.836538 -154.253098 0.061990 -0.708694 0.702787 
83.416718 1.593817 -154.329300 0.061574 -0.712524 0.698940 
82.558319 1.925678 -153.914902 0.058773 -0.696339 0.715303 
82.599892 2.809653 -153.053894 0.057068 -0.662769 0.746646 
83.450783 2.466521 -153.477997 0.059946 -0.676668 0.733844 
81.692062 2.260078 -153.492096 0.055200 -0.681291 0.729928 
80.811523 2.629050 -153.080399 0.048893 -0.660539 0.749198 
80.826210 3.569108 -152.312103 0.044963 -0.628188 0.776761 
81.718063 3.191067 -152.681900 0.051495 -0.642183 0.764819 
79.902962 3.031354 -152.692093 0.043315 -0.645624 0.762426 
78.966629 3.428737 -152.311401 0.032554 -0.625450 0.779585 
78.996307 4.376407 -151.539200 0.029597 -0.590211 0.806706 
79.920082 3.958927 -151.934601 0.037256 -0.609617 0.791820 
78.037117 3.832671 -151.940704 0.023750 -0.604043 0.796598 
77.162018 4.116313 -151.713593 0.017804 -0.597022 0.802027 
77.203941 5.064263 -151.052795 0.015839 -0.563862 0.825717 
78.047256 4.881739 -151.179398 0.024107 -0.567679 0.822897 
76.291481 4.387772 -151.496201 0.011478 -0.585667 0.810471 
75.422737 4.680417 -151.297699 0.006429 -0.576161 0.817311 
75.479912 5.605443 -150.696106 0.006933 -0.549143 0.835699 
76.343933 5.317689 -150.880600 0.011072 -0.557418 0.830158 
74.554497 4.983757 -151.098404 0.002449 -0.566844 0.823822 
73.686256 5.299745 -150.890900 -0.001835 -0.557827 0.829956 
73.751312 6.223793 -150.301498 0.000747 -0.537257 0.843418 
74.616020 5.904403 -150.502502 0.002193 -0.542700 0.839924 
72.819183 5.629122 -150.689804 -0.002665 -0.550797 0.834635 
71.952469 5.966864 -150.484894 -0.002274 -0.544852 0.838529 
72.027229 6.880003 -149.901901 0.003506 -0.528454 0.848955 
72.888283 6.551514 -150.101807 0.000472 -0.531931 0.846787 
71.086441 6.307043 -150.280197 -0.001519 -0.542594 0.839994 
70.221397 6.643340 -150.080795 0.001334 -0.540029 0.841645 
70.312408 7.515237 -149.526505 0.008986 -0.530647 0.847545 
71.169113 7.201986 -149.711395 0.007459 -0.527830 0.849317 
69.355621 6.973217 -149.873993 0.003522 -0.541276 0.840837 
68.489212 7.304160 -149.666397 0.004747 -0.544538 0.838723 
68.601357 8.090639 -149.177200 0.011447 -0.540876 0.841025 
69.456398 7.812876 -149.345596 0.010199 -0.534834 0.844895 
67.622620 7.652954 -149.433899 0.004731 -0.549520 0.835468 
66.750237 7.740715 -149.374603 0.003722 -0.555335 0.831618 
66.872627 8.420347 -148.927597 0.011396 -0.555429 0.831486 
67.747108 8.301232 -149.022903 0.012856 -0.547874 0.836462 
65.878326 7.860670 -149.305298 0.003481 -0.560930 0.827856 
65.003281 8.001782 -149.220795 0.002270 -0.566823 0.823836 
65.122543 8.646897 -148.778595 0.008137 -0.570123 0.821519 
65.998268 8.541029 -148.857895 0.009397 -0.562268 0.826902 
64.128227 8.125867 -149.121796 0.000016 -0.573277 0.819361 
63.252789 8.247442 -149.046906 -0.001942 -0.580021 0.814600 
63.362598 8.832857 -148.633408 0.004221 -0.582478 0.812836 
64.244453 8.741551 -148.694901 0.006931 -0.577528 0.816342 
62.372471 8.318843 -149.007507 -0.003516 -0.585599 0.810593 
61.485291 8.387193 -148.951599 -0.006321 -0.590147 0.807271 
61.583431 8.974446 -148.520294 -0.002350 -0.591674 0.806174 
62.476959 8.909093 -148.582993 -0.000384 -0.588676 0.808369 
60.593460 8.476518 -148.899399 -0.008499 -0.594002 0.804419 
59.701801 8.570936 -148.843597 -0.009872 -0.597411 0.801875 
59.784679 9.155994 -148.410004 -0.007149 -0.599632 0.800244 
60.687618 9.059213 -148.467606 -0.005079 -0.595611 0.803257 
58.805130 8.679497 -148.780396 -0.010979 -0.601158 0.799055 
57.914520 8.777781 -148.720093 -0.012285 -0.604195 0.796741 
57.986980 9.355429 -148.282104 -0.009912 -0.606081 0.795341 
58.883289 9.257399 -148.348099 -0.008380 -0.603328 0.797449 
57.031631 8.864822 -148.662292 -0.013528 -0.607702 0.794050 
56.156040 8.949964 -148.614105 -0.014776 -0.609888 0.792350 
56.234852 9.533680 -148.164398 -0.011599 -0.613151 0.789881 
57.108391 9.445634 -148.221802 -0.010903 -0.609731 0.792533 
55.285339 9.031475 -148.574600 -0.015680 -0.613574 0.789481 
54.412498 9.110830 -148.521896 -0.016658 -0.616661 0.787052 
54.509392 9.693839 -148.060593 -0.012921 -0.619532 0.784865 
55.371101 9.618144 -148.113403 -0.012653 -0.615601 0.787957 
53.539150 9.188524 -148.477798 -0.017457 -0.621215 0.783446 
52.661690 9.267243 -148.435593 -0.019594 -0.625909 0.779650 
52.764809 9.843990 -147.969498 -0.013941 -0.628747 0.777485 
53.642700 9.770633 -148.015503 -0.013160 -0.624029 0.781291 
51.782299 9.351744 -148.394501 -0.020139 -0.630348 0.776051 
50.894699 9.434883 -148.344696 -0.021192 -0.634770 0.772411 
50.982681 10.001530 -147.877197 -0.017129 -0.637823 0.769993 
51.877911 9.922848 -147.922806 -0.015371 -0.633802 0.773343 
50.002892 9.516450 -148.298492 -0.022818 -0.638910 0.768943 
49.099560 9.619573 -148.250793 -0.024517 -0.642578 0.765828 
49.173168 10.176480 -147.775803 -0.021538 -0.646974 0.762208 
50.081409 10.074270 -147.836304 -0.019083 -0.642505 0.766044 
48.197868 9.718819 -148.197205 -0.026638 -0.645980 0.762890 
47.304420 9.827520 -148.137604 -0.028991 -0.649119 0.760134 
47.364941 10.377420 -147.653000 -0.026954 -0.654474 0.755604 
48.269299 10.274960 -147.711395 -0.024122 -0.650936 0.758750 
46.419609 9.934223 -148.083496 -0.031427 -0.651833 0.757711 
45.528980 10.039730 -148.026794 -0.033982 -0.654642 0.755175 
45.580269 10.591930 -147.542892 -0.032312 -0.660061 0.750516 
46.464039 10.485170 -147.598694 -0.029774 -0.657521 0.752848 
44.640511 10.146250 -147.977905 -0.036116 -0.657194 0.752856 
43.754841 10.248590 -147.926697 -0.037929 -0.659664 0.750603 
43.810261 10.795260 -147.439606 -0.036529 -0.664565 0.746337 
44.697811 10.689370 -147.491501 -0.034605 -0.662437 0.748318 
42.868542 10.351520 -147.875000 -0.039189 -0.662127 0.748367 
41.978378 10.467870 -147.816605 -0.040174 -0.664733 0.746000 
42.035999 11.020980 -147.324295 -0.038117 -0.669186 0.742116 
42.919899 10.903720 -147.384003 -0.037809 -0.666511 0.744536 
41.097569 10.583160 -147.763199 -0.040689 -0.667463 0.743531 
40.231232 10.697400 -147.711395 -0.040716 -0.670239 0.741027 
40.287022 11.250660 -147.203903 -0.038249 -0.673443 0.738249 
41.155239 11.137800 -147.264999 -0.038191 -0.671072 0.740408 
39.369221 10.809380 -147.653900 -0.039887 -0.672924 0.738636 
38.504910 10.918320 -147.593796 -0.039607 -0.675608 0.736197 
38.564159 11.477320 -147.081100 -0.037692 -0.678003 0.734092 
39.425098 11.366280 -147.140305 -0.038033 -0.675769 0.736132 
37.643951 11.026220 -147.537704 -0.039286 -0.678408 0.733634 
36.781631 11.136190 -147.485703 -0.038966 -0.681230 0.731032 
36.831951 11.710020 -146.949799 -0.036465 -0.682938 0.729566 
37.698769 11.596310 -147.013702 -0.037147 -0.680312 0.731980 
35.905239 11.257190 -147.423706 -0.038512 -0.683380 0.729047 
35.035118 11.370880 -147.355499 -0.038172 -0.685788 0.726800 
35.087410 11.939870 -146.811295 -0.035723 -0.687931 0.724896 
35.959660 11.827250 -146.878296 -0.035999 -0.685381 0.727294 
34.163651 11.486590 -147.289703 -0.037852 -0.688344 0.724396 
33.297600 11.600080 -147.227203 -0.037440 -0.690505 0.722358 
33.346600 12.178700 -146.671402 -0.035696 -0.691902 0.721108 
34.216438 12.059200 -146.741699 -0.035659 -0.690031 0.722901 
32.429081 11.718040 -147.155899 -0.037666 -0.692314 0.720613 
31.550470 11.843760 -147.075806 -0.038681 -0.693858 0.719072 
31.603121 12.419430 -146.520004 -0.037005 -0.694854 0.718198 
32.477509 12.296240 -146.598007 -0.036108 -0.693501 0.719550 
30.674110 11.970550 -146.998596 -0.040023 -0.695221 0.717681 
29.786150 12.104670 -146.917496 -0.041946 -0.696416 0.716411 
29.841280 12.682860 -146.352905 -0.040552 -0.696929 0.715993 
30.726379 12.546000 -146.438507 -0.038508 -0.695981 0.717027 
28.888760 12.240350 -146.835098 -0.044685 -0.697363 0.715324 
27.987659 12.374980 -146.753799 -0.048179 -0.698252 0.714229 
28.043131 12.958980 -146.182404 -0.046531 -0.698331 0.714261 
28.942209 12.822180 -146.266403 -0.043360 -0.697694 0.715083 
27.087061 12.513100 -146.681198 -0.052087 -0.699179 0.713047 
26.181400 12.655430 -146.613907 -0.056157 -0.700174 0.711760 
26.225849 13.243000 -146.030396 -0.054183 -0.699815 0.712266 
27.137220 13.097230 -146.101593 -0.050306 -0.699064 0.713288 
25.268150 12.799710 -146.544296 -0.059981 -0.701252 0.710386 
24.367611 12.941220 -146.478500 -0.063411 -0.702391 0.708962 
24.419701 13.536180 -145.886703 -0.061821 -0.701792 0.709694 
25.319290 13.390370 -145.957397 -0.058623 -0.700825 0.710920 
23.471790 13.092240 -146.419403 -0.066147 -0.703625 0.707486 
22.593929 13.240520 -146.361298 -0.067984 -0.704879 0.706062 
22.647039 13.837480 -145.757507 -0.066124 -0.703355 0.707756 
23.527651 13.685440 -145.819107 -0.064523 -0.702699 0.708556 
21.726419 13.378890 -146.306305 -0.069454 -0.705867 0.704931 
20.829350 13.547470 -146.222504 -0.071969 -0.706476 0.704068 
20.886141 14.134100 -145.622299 -0.070095 -0.704156 0.706577 
21.771900 13.981820 -145.693695 -0.067873 -0.703963 0.706986 
19.925301 13.709480 -146.149094 -0.075834 -0.706948 0.703188 
19.013309 13.861610 -146.095596 -0.081038 -0.707558 0.701993 
19.065741 14.469910 -145.470093 -0.078778 -0.704718 0.705100 
19.980280 14.306990 -145.541397 -0.073723 -0.704376 0.705988 
18.084089 13.996320 -146.061493 -0.087416 -0.708280 0.700498 
17.150610 14.171150 -145.987900 -0.093888 -0.709549 0.698373 
17.221130 14.783600 -145.347305 -0.091128 -0.705657 0.702669 
18.143270 14.624150 -145.406403 -0.084606 -0.704922 0.704221 
16.236950 14.354150 -145.957993 -0.100494 -0.711030 0.695944 
15.332500 14.514390 -145.950607 -0.106440 -0.713057 0.692979 
15.411340 15.108420 -145.272995 -0.101796 -0.707633 0.699209 
16.310490 14.950080 -145.296295 -0.097034 -0.706409 0.701122 
14.444960 14.648960 -145.936905 -0.107996 -0.714248 0.691510 
13.570230 14.770870 -145.938797 -0.110623 -0.717244 0.687986 
13.648100 15.368910 -145.253296 -0.103931 -0.711085 0.695383 
14.523890 15.245950 -145.255905 -0.102881 -0.708288 0.698387 
12.686280 14.893880 -145.944305 -0.113050 -0.721572 0.683047 
11.781130 15.022260 -145.955093 -0.117685 -0.726299 0.677230 
11.914390 15.614050 -145.271301 -0.109256 -0.718656 0.686729 
12.783450 15.489620 -145.262207 -0.105499 -0.714728 0.691400 
10.843490 15.144600 -145.962402 -0.122360 -0.729896 0.672518 
9.899697 15.248000 -145.962006 -0.128634 -0.733078 0.667870 
10.006280 15.886490 -145.278793 -0.123852 -0.722295 0.680405 
10.961370 15.756820 -145.274094 -0.118172 -0.721136 0.682641 
8.951565 15.379940 -145.964905 -0.134584 -0.732200 0.667660 
8.025165 15.578470 -145.982300 -0.141240 -0.731054 0.667542 
8.106317 16.193670 -145.266800 -0.140943 -0.720886 0.678571 
9.031965 16.031469 -145.272003 -0.133350 -0.722240 0.678666 
7.155756 15.802750 -145.992599 -0.148385 -0.727987 0.669341 
6.292397 15.992090 -145.992493 -0.155453 -0.728945 0.666689 
6.352962 16.568710 -145.326508 -0.148520 -0.721064 0.676763 
7.226081 16.393339 -145.297699 -0.145773 -0.720780 0.677663 
5.404444 16.135509 -146.020706 -0.159013 -0.731616 0.662912 
4.498385 16.254280 -146.075500 -0.163444 -0.736567 0.656319 
4.592882 16.864180 -145.443405 -0.154280 -0.730185 0.665603 
5.471032 16.706390 -145.359894 -0.151847 -0.725295 0.671483 
3.599569 16.387020 -146.179306 -0.165098 -0.741569 0.650244 
2.707278 16.504471 -146.302094 -0.170956 -0.747404 0.641998 
2.846184 17.051910 -145.605194 -0.162960 -0.740588 0.651900 
3.715310 16.950850 -145.494400 -0.156316 -0.735521 0.659223 
1.825762 16.611031 -146.434906 -0.177248 -0.751450 0.635536 
0.948205 16.690470 -146.557693 -0.184724 -0.755809 0.628196 
1.132978 17.241949 -145.838303 -0.175349 -0.749278 0.638620 
1.993727 17.157551 -145.730499 -0.169775 -0.744508 0.645665 
0.094941 16.791809 -146.696396 -0.192066 -0.760386 0.620423 
-0.762245 16.897850 -146.837296 -0.197840 -0.764174 0.613920 
-0.581688 17.415600 -146.095001 -0.188593 -0.759577 0.622475 
0.275477 17.314470 -145.951508 -0.181968 -0.755307 0.629602 
-1.632899 17.011129 -146.981598 -0.205824 -0.768538 0.605794 
-2.512557 17.132389 -147.132004 -0.215692 -0.771369 0.598722 
-2.342575 17.679529 -146.381500 -0.206967 -0.766267 0.608276 
-1.457229 17.544371 -146.235306 -0.197234 -0.763130 0.615412 
-3.414687 17.247511 -147.291504 -0.225955 -0.774451 0.590906 
-4.331075 17.370951 -147.467102 -0.233197 -0.776654 0.585173 
-4.217287 17.922871 -146.703796 -0.225333 -0.769923 0.597029 
-3.278427 17.803579 -146.539093 -0.218995 -0.768651 0.601013 
-5.182640 17.517229 -147.639206 -0.241175 -0.777306 0.581059 
-6.015372 17.672300 -147.828903 -0.243406 -0.780307 0.576086 
-5.950138 18.210430 -147.058395 -0.238342 -0.774958 0.585349 
-5.099573 18.052410 -146.867203 -0.233154 -0.771808 0.591567 
-6.836627 17.805960 -148.007507 -0.246872 -0.783598 0.570113 
-7.599521 17.923281 -148.135895 -0.247805 -0.783536 0.569793 
-7.525021 18.470909 -147.387299 -0.240829 -0.778778 0.579229 
-6.795201 18.365191 -147.254501 -0.240160 -0.778418 0.579990 
127.279800 3.014849 -172.711594 0.333344 -0.824279 0.457652 
128.131500 3.004444 -173.037704 0.327594 -0.823607 0.462983 
126.439102 2.973229 -172.348602 0.347088 -0.824681 0.446577 
126.558601 3.433536 -171.594406 0.357051 -0.822228 0.443234 
127.379204 3.512461 -171.975403 0.344451 -0.822289 0.452983 
128.221893 3.501889 -172.293106 0.342990 -0.820473 0.457364 
125.663597 2.816336 -171.927200 0.355097 -0.826301 0.437188 
124.894798 2.654778 -171.508194 0.369676 -0.825260 0.426949 
125.043297 3.073463 -170.742294 0.374065 -0.822333 0.428769 
125.794502 3.258246 -171.168594 0.367973 -0.821137 0.436269 
124.164497 2.448170 -171.078201 0.388594 -0.822970 0.414384 
123.449303 2.256515 -170.671005 0.396270 -0.821481 0.410048 
123.611397 2.708653 -169.938904 0.398591 -0.816273 0.418119 
124.322403 2.876512 -170.325607 0.390047 -0.820097 0.418694 
122.739799 2.090720 -170.301605 0.397327 -0.820930 0.410128 
122.042900 1.889450 -170.004196 0.389715 -0.822725 0.413818 
122.222298 2.347039 -169.285294 0.390810 -0.815941 0.426039 
122.929199 2.549747 -169.589905 0.397781 -0.814804 0.421741 
121.345398 1.695647 -169.692398 0.379650 -0.824899 0.418818 
120.630699 1.530389 -169.402100 0.366768 -0.827058 0.425977 
120.801598 1.989982 -168.673798 0.369516 -0.817445 0.441862 
121.512703 2.163763 -168.978104 0.380440 -0.816631 0.434027 
119.912003 1.381280 -169.100494 0.355227 -0.829326 0.431314 
119.171799 1.224043 -168.799698 0.343838 -0.831062 0.437162 
119.336304 1.696771 -168.068298 0.348462 -0.820769 0.452673 
120.084702 1.835780 -168.369797 0.359429 -0.818908 0.447437 
118.419296 1.076554 -168.516602 0.331251 -0.833805 0.441636 
117.655098 0.913567 -168.259506 0.320254 -0.837196 0.443330 
117.812698 1.393612 -167.503098 0.327043 -0.823652 0.463294 
118.585197 1.555057 -167.775803 0.335748 -0.822611 0.458895 
116.893600 0.740972 -168.034698 0.311523 -0.840365 0.443555 
116.132500 0.561772 -167.822098 0.302313 -0.845462 0.440228 
116.295403 1.045419 -167.085098 0.311323 -0.831763 0.459617 
117.055801 1.218004 -167.285294 0.319879 -0.826337 0.463514 
115.365196 0.395446 -167.637695 0.298443 -0.848811 0.436407 
114.612503 0.265952 -167.405899 0.294814 -0.851367 0.433889 
114.777702 0.752659 -166.659500 0.303073 -0.837961 0.453836 
115.533096 0.878387 -166.897095 0.306451 -0.835901 0.455366 
113.854897 0.152593 -167.136200 0.291875 -0.852464 0.433721 
113.095100 0.037186 -166.839706 0.287030 -0.854825 0.432305 
113.263397 0.514318 -166.072601 0.295918 -0.841726 0.451585 
114.022499 0.629994 -166.377899 0.299660 -0.840287 0.451798 
112.331100 -0.077194 -166.538605 0.282625 -0.856459 0.431973 
111.562500 -0.189120 -166.243103 0.275245 -0.859647 0.430404 
111.735703 0.280925 -165.449799 0.283753 -0.847193 0.449164 
112.499298 0.403877 -165.762100 0.291679 -0.843428 0.451167 
110.786400 -0.278916 -165.941299 0.267757 -0.861157 0.432105 
110.011101 -0.348767 -165.607193 0.260455 -0.862383 0.434119 
110.171898 0.103486 -164.826202 0.268650 -0.850747 0.451727 
110.956703 0.191239 -165.140503 0.275831 -0.849097 0.450502 
109.196404 -0.388002 -165.195297 0.253532 -0.862447 0.438071 
108.394600 -0.410246 -164.806107 0.247654 -0.862019 0.442256 
108.554298 0.066409 -164.009293 0.254988 -0.849132 0.462553 
109.354500 0.078244 -164.409393 0.260130 -0.850455 0.457230 
107.605797 -0.420242 -164.429306 0.245122 -0.861325 0.445009 
106.835999 -0.428197 -164.039703 0.244254 -0.859826 0.448374 
107.008797 0.062082 -163.216095 0.251420 -0.845949 0.470275 
107.772797 0.059631 -163.614304 0.251915 -0.847712 0.466823 
106.078003 -0.448235 -163.644196 0.244167 -0.858210 0.451507 
105.325699 -0.464957 -163.245697 0.245150 -0.857396 0.452519 
105.506104 0.046195 -162.425903 0.251107 -0.843099 0.475530 
106.250999 0.046447 -162.821899 0.251369 -0.844018 0.473759 
104.570000 -0.477942 -162.841293 0.244793 -0.855643 0.456017 
103.790604 -0.478252 -162.422104 0.244572 -0.853678 0.459802 
103.970100 0.064154 -161.561295 0.251426 -0.837910 0.484450 
104.766403 0.050727 -162.022293 0.251880 -0.840537 0.479640 
103.003098 -0.483569 -162.013306 0.243012 -0.851470 0.464698 
102.200897 -0.489467 -161.599304 0.240190 -0.849842 0.469124 
102.357597 0.074979 -160.660797 0.246295 -0.832833 0.495709 
103.167900 0.069712 -161.109207 0.249563 -0.836007 0.488683 
101.380302 -0.476937 -161.165894 0.235828 -0.847096 0.476248 
100.546097 -0.447011 -160.730301 0.230080 -0.844014 0.484462 
100.682503 0.157413 -159.758804 0.233998 -0.823984 0.516038 
101.525803 0.111245 -160.212097 0.241015 -0.829443 0.503921 
99.691483 -0.398034 -160.250702 0.222276 -0.840189 0.494646 
98.827271 -0.343345 -159.768295 0.211962 -0.834897 0.507956 
98.953583 0.293571 -158.839996 0.213445 -0.811217 0.544398 
99.823036 0.221580 -159.296707 0.225386 -0.817167 0.530508 
97.956970 -0.296863 -159.297501 0.201033 -0.828725 0.522303 
97.072723 -0.233771 -158.828506 0.189476 -0.822055 0.536959 
97.192650 0.429533 -157.930496 0.191215 -0.797783 0.571821 
98.080048 0.350420 -158.374893 0.202315 -0.804361 0.558634 
96.172722 -0.149432 -158.368500 0.179988 -0.814390 0.551700 
95.258636 -0.049360 -157.880798 0.164984 -0.803735 0.571656 
95.357224 0.670848 -157.005096 0.164372 -0.778016 0.606361 
96.291870 0.507692 -157.479004 0.179159 -0.789344 0.587229 
94.323143 0.101164 -157.394394 0.150419 -0.795753 0.586644 
93.373138 0.278708 -156.942398 0.137508 -0.785845 0.602942 
93.455887 1.083947 -156.032898 0.137012 -0.757885 0.637839 
94.405800 0.890335 -156.511002 0.149776 -0.769150 0.621269 
92.423752 0.473284 -156.480301 0.123391 -0.776052 0.618480 
91.470940 0.722927 -156.051102 0.108077 -0.763883 0.636240 
91.531601 1.573058 -155.138901 0.108190 -0.729646 0.675212 
92.497780 1.306468 -155.579697 0.121546 -0.745022 0.655872 
90.538452 0.981744 -155.627594 0.095344 -0.751135 0.653227 
89.615883 1.247613 -155.227707 0.084814 -0.739209 0.668114 
89.684082 2.091791 -154.318298 0.083969 -0.702973 0.706242 
90.603149 1.830283 -154.714493 0.094280 -0.715527 0.692194 
88.706612 1.515823 -154.840897 0.076231 -0.723100 0.686524 
87.802658 1.785836 -154.457901 0.069520 -0.712875 0.697836 
87.849129 2.706313 -153.623001 0.069698 -0.677443 0.732266 
88.762863 2.399516 -153.969894 0.075767 -0.690254 0.719589 
86.917969 2.089350 -154.112595 0.065828 -0.699784 0.711315 
86.046066 2.397277 -153.763504 0.063265 -0.688675 0.722305 
86.086037 3.299941 -152.924393 0.063622 -0.652100 0.755458 
86.954453 2.985733 -153.269806 0.065951 -0.664863 0.744048 
85.186867 2.702918 -153.390701 0.062124 -0.671000 0.738851 
84.330658 3.016224 -153.014893 0.059247 -0.656018 0.752416 
84.355011 3.972729 -152.241302 0.058182 -0.623290 0.779823 
85.219727 3.621216 -152.582993 0.061271 -0.636717 0.768660 
83.478233 3.371434 -152.669098 0.057606 -0.641895 0.764626 
82.626633 3.765172 -152.283493 0.053512 -0.627339 0.776906 
82.642021 4.696067 -151.567001 0.051365 -0.593098 0.803490 
83.502571 4.344396 -151.921097 0.055504 -0.609108 0.791143 
81.742867 4.120708 -151.924194 0.047710 -0.610154 0.790845 
80.851982 4.475488 -151.572495 0.042321 -0.595419 0.802300 
80.877609 5.424544 -150.958099 0.039338 -0.559698 0.827762 
81.764198 5.054626 -151.243500 0.045696 -0.576580 0.815762 
79.951340 4.864933 -151.259903 0.034601 -0.577615 0.815576 
79.044968 5.255184 -150.952499 0.029390 -0.559741 0.828146 
79.095047 6.124711 -150.393997 0.027931 -0.535010 0.844384 
79.987328 5.776039 -150.665497 0.033872 -0.545442 0.837464 
78.139671 5.643770 -150.680496 0.021420 -0.547198 0.836729 
77.269180 5.921536 -150.487305 0.016204 -0.537733 0.842959 
77.332390 6.779285 -149.961304 0.017038 -0.518372 0.854985 
78.206947 6.468902 -150.160995 0.021006 -0.525103 0.850779 
76.403870 6.204250 -150.302795 0.010751 -0.533717 0.845595 
75.540970 6.500327 -150.119598 0.007481 -0.527339 0.849622 
75.603218 7.403463 -149.615204 0.010615 -0.508168 0.861193 
76.465729 7.089081 -149.788696 0.013267 -0.511434 0.859220 
74.679451 6.815664 -149.944595 0.005200 -0.522442 0.852659 
73.819420 7.135972 -149.755798 0.006234 -0.517729 0.855522 
73.889053 8.033054 -149.244705 0.011826 -0.505963 0.862474 
74.743820 7.720886 -149.432602 0.011134 -0.504838 0.863142 
72.962700 7.458012 -149.569794 0.008060 -0.516213 0.856422 
72.110840 7.765468 -149.385101 0.010888 -0.517840 0.855408 
72.200180 8.612002 -148.894501 0.017959 -0.513270 0.858039 
73.041031 8.334008 -149.068405 0.014114 -0.508301 0.861064 
71.262718 8.059641 -149.204407 0.014361 -0.520859 0.853522 
70.418312 8.330751 -149.041397 0.016258 -0.526058 0.850293 
70.535454 9.097760 -148.582306 0.023378 -0.526995 0.849547 
71.365288 8.868884 -148.729599 0.020714 -0.519765 0.854058 
69.574333 8.564974 -148.877808 0.016596 -0.532430 0.846311 
68.729889 8.778754 -148.747299 0.018815 -0.539496 0.841778 
68.866837 9.428335 -148.335907 0.025004 -0.542213 0.839869 
69.701111 9.275004 -148.451508 0.025623 -0.535509 0.844141 
67.872047 8.928606 -148.625305 0.018530 -0.548800 0.835748 
67.000031 9.043797 -148.524902 0.018288 -0.558147 0.829541 
67.138474 9.660550 -148.128998 0.024840 -0.559020 0.828782 
68.010719 9.551637 -148.228500 0.025886 -0.551694 0.833645 
66.122543 9.166358 -148.441605 0.017375 -0.566828 0.823653 
65.245659 9.266739 -148.353897 0.014643 -0.572054 0.820085 
65.384697 9.853945 -147.941193 0.020714 -0.575035 0.817867 
66.263039 9.759682 -148.025894 0.023196 -0.568111 0.822625 
64.364098 9.348153 -148.279297 0.011980 -0.578969 0.815261 
63.476318 9.419416 -148.218994 0.008189 -0.584166 0.811593 
63.597950 9.998724 -147.801193 0.015663 -0.590736 0.806713 
64.496750 9.933164 -147.867294 0.018723 -0.583430 0.811948 
62.582142 9.488282 -148.160400 0.004699 -0.590920 0.806717 
61.683559 9.555179 -148.096497 0.001516 -0.596789 0.802397 
61.782791 10.130140 -147.675507 0.005122 -0.601021 0.799217 
62.693459 10.061720 -147.738297 0.010332 -0.596888 0.802258 
60.782242 9.637901 -148.038803 -0.001264 -0.601133 0.799148 
59.864250 9.733046 -147.977295 -0.004161 -0.604794 0.796371 
59.945580 10.297010 -147.539001 -0.001584 -0.609546 0.792749 
60.866772 10.206350 -147.610199 0.001856 -0.605749 0.795654 
58.956219 9.827402 -147.905197 -0.006760 -0.607627 0.794194 
58.050480 9.930706 -147.836395 -0.008362 -0.610804 0.791738 
58.137089 10.500930 -147.390198 -0.006466 -0.614358 0.789001 
59.035480 10.394660 -147.462296 -0.004476 -0.612262 0.790642 
57.180050 10.025170 -147.774094 -0.008695 -0.613426 0.789705 
56.316639 10.116210 -147.711502 -0.008620 -0.615947 0.787740 
56.393360 10.694960 -147.249893 -0.006673 -0.618685 0.785611 
57.254921 10.598160 -147.322906 -0.006801 -0.616594 0.787252 
55.458279 10.204020 -147.649002 -0.009076 -0.618667 0.785601 
54.607811 10.282890 -147.594604 -0.009070 -0.622001 0.782964 
54.710972 10.873850 -147.121201 -0.005262 -0.623562 0.781756 
55.549858 10.790010 -147.180893 -0.005478 -0.620839 0.783919 
53.747379 10.355130 -147.541107 -0.008681 -0.625816 0.779922 
52.870930 10.425850 -147.488602 -0.009095 -0.630639 0.776023 
52.981670 11.028500 -146.990494 -0.003183 -0.631809 0.775118 
53.859268 10.947030 -147.055801 -0.003796 -0.626941 0.779057 
51.981091 10.503180 -147.442001 -0.009725 -0.635935 0.771681 
51.080742 10.586780 -147.392502 -0.011664 -0.641741 0.766833 
51.189651 11.192040 -146.876694 -0.005587 -0.643707 0.765251 
52.089161 11.115170 -146.934998 -0.004384 -0.637951 0.770064 
50.176159 10.668310 -147.329895 -0.014067 -0.646607 0.762694 
49.269138 10.764750 -147.260803 -0.017449 -0.651764 0.758221 
49.369289 11.375230 -146.724396 -0.011067 -0.654240 0.756206 
50.280998 11.275260 -146.799896 -0.007984 -0.649382 0.760421 
48.359928 10.857680 -147.202103 -0.020203 -0.655765 0.754695 
47.450668 10.950870 -147.146606 -0.023454 -0.659225 0.751580 
47.544418 11.562320 -146.608002 -0.019546 -0.661797 0.749428 
48.456791 11.474690 -146.660995 -0.016006 -0.658534 0.752381 
46.542461 11.047950 -147.101898 -0.026794 -0.662285 0.748773 
45.641392 11.141660 -147.048904 -0.029902 -0.664916 0.746319 
45.721569 11.714090 -146.533905 -0.027242 -0.667505 0.744107 
46.632500 11.642420 -146.567398 -0.023495 -0.664769 0.746680 
44.747608 11.235910 -146.998901 -0.032462 -0.667053 0.744302 
43.865971 11.345720 -146.943207 -0.034613 -0.668918 0.742530 
43.932980 11.917680 -146.413300 -0.032639 -0.671907 0.739916 
44.811680 11.779680 -146.506500 -0.030409 -0.669258 0.742408 
42.979450 11.456910 -146.880997 -0.036087 -0.670590 0.740950 
42.089901 11.565180 -146.820908 -0.036645 -0.672317 0.739356 
42.158691 12.133140 -146.289505 -0.035120 -0.674929 0.737046 
43.046822 12.032850 -146.341705 -0.034492 -0.673655 0.738241 
41.207489 11.684850 -146.754105 -0.036647 -0.674208 0.737632 
40.334888 11.800850 -146.690201 -0.036379 -0.676314 0.735714 
40.405430 12.372130 -146.155807 -0.034487 -0.677319 0.734881 
41.277100 12.244530 -146.230499 -0.035084 -0.675906 0.736152 
39.479832 11.924470 -146.618805 -0.036068 -0.678227 0.733967 
38.616810 12.036170 -146.559097 -0.035562 -0.680193 0.732170 
38.679958 12.623470 -146.003403 -0.033758 -0.681442 0.731093 
39.541168 12.498800 -146.082001 -0.034146 -0.679088 0.733262 
37.754639 12.164100 -146.477905 -0.034830 -0.682347 0.730198 
36.887272 12.285830 -146.399597 -0.034154 -0.684490 0.728222 
36.948528 12.869160 -145.844193 -0.032525 -0.685599 0.727252 
37.814991 12.745020 -145.924896 -0.033309 -0.683381 0.729302 
36.014050 12.401910 -146.328598 -0.033663 -0.686694 0.726167 
35.136841 12.515450 -146.260895 -0.033435 -0.688961 0.724027 
35.204929 13.105230 -145.696106 -0.031555 -0.689908 0.723209 
36.075062 12.988520 -145.768600 -0.031818 -0.687713 0.725285 
34.267921 12.638220 -146.187805 -0.033487 -0.691121 0.721963 
33.394630 12.754020 -146.113098 -0.033951 -0.693309 0.719840 
33.454632 13.328120 -145.555496 -0.032535 -0.693465 0.719755 
34.330261 13.218180 -145.626297 -0.031719 -0.692022 0.721179 
32.523640 12.872470 -146.036606 -0.034734 -0.694859 0.718306 
31.644939 12.997420 -145.957001 -0.035833 -0.695712 0.717426 
31.697081 13.572380 -145.396301 -0.035006 -0.695914 0.717271 
32.578979 13.446400 -145.476898 -0.033610 -0.694804 0.718413 
30.763531 13.128500 -145.870499 -0.037047 -0.696305 0.716789 
29.878719 13.266160 -145.781494 -0.039185 -0.696955 0.716044 
29.925211 13.846560 -145.212402 -0.038692 -0.696845 0.716178 
30.812679 13.707170 -145.305695 -0.036789 -0.696718 0.716401 
28.987930 13.407690 -145.692398 -0.042210 -0.697921 0.714930 
28.087271 13.548580 -145.606598 -0.045579 -0.698508 0.714149 
28.131689 14.139870 -145.029297 -0.044573 -0.697245 0.715445 
29.031540 13.992550 -145.120697 -0.041375 -0.696953 0.715922 
27.177750 13.689260 -145.522202 -0.049731 -0.698977 0.713413 
26.274580 13.834140 -145.443100 -0.053492 -0.699386 0.712739 
26.324850 14.424580 -144.856705 -0.052238 -0.697608 0.714573 
27.228020 14.281590 -144.943497 -0.048412 -0.697506 0.714942 
25.370220 13.984430 -145.367798 -0.057074 -0.699863 0.711994 
24.470570 14.135190 -145.292206 -0.060306 -0.700221 0.711375 
24.521690 14.735370 -144.697495 -0.059331 -0.697149 0.714467 
25.423960 14.579040 -144.778000 -0.055913 -0.697720 0.714185 
23.577419 14.286130 -145.216003 -0.063064 -0.700448 0.710912 
22.693920 14.440080 -145.145798 -0.065254 -0.700576 0.710588 
22.741859 15.058280 -144.530701 -0.064400 -0.696412 0.714746 
23.630880 14.895710 -144.612198 -0.062266 -0.696806 0.714552 
21.817011 14.588740 -145.077896 -0.066601 -0.700523 0.710515 
20.946541 14.725530 -145.024994 -0.068608 -0.700536 0.710312 
20.998671 15.386500 -144.367706 -0.067452 -0.695502 0.715351 
21.856359 15.219810 -144.451294 -0.065475 -0.696275 0.714782 
20.034821 14.918130 -144.911102 -0.071750 -0.700160 0.710372 
19.118710 15.090020 -144.820908 -0.076379 -0.699796 0.710248 
19.173401 15.737760 -144.167694 -0.075462 -0.692421 0.717537 
20.089680 15.567760 -144.264999 -0.070448 -0.693951 0.716568 
18.200239 15.255810 -144.744995 -0.082135 -0.698938 0.710450 
17.284901 15.421840 -144.683395 -0.088315 -0.699236 0.709415 
17.342480 16.080339 -144.023102 -0.085708 -0.690405 0.718328 
18.256380 15.909990 -144.086502 -0.080566 -0.691450 0.717918 
16.377689 15.584280 -144.634506 -0.093373 -0.699509 0.708497 
15.482160 15.743210 -144.602493 -0.096659 -0.700113 0.707460 
15.548870 16.413389 -143.926407 -0.091759 -0.690727 0.717271 
16.436951 16.246910 -143.971100 -0.089659 -0.690497 0.717757 
14.598190 15.892890 -144.583801 -0.097901 -0.701529 0.705884 
13.725720 16.030279 -144.575699 -0.098232 -0.703459 0.703915 
13.808970 16.720230 -143.877594 -0.093048 -0.693303 0.714614 
14.669630 16.571079 -143.899094 -0.093291 -0.692139 0.715710 
12.860010 16.161440 -144.574097 -0.099015 -0.705719 0.701539 
11.982910 16.293461 -144.575699 -0.102447 -0.707597 0.699151 
12.057230 16.986670 -143.872101 -0.097279 -0.696452 0.710979 
12.958900 16.856470 -143.867493 -0.093682 -0.694382 0.713483 
11.048170 16.426640 -144.580704 -0.109134 -0.709004 0.696709 
10.085300 16.556190 -144.584702 -0.121377 -0.711690 0.691929 
10.165500 17.229460 -143.890701 -0.115991 -0.698524 0.706124 
11.118010 17.110889 -143.877594 -0.104949 -0.697118 0.709233 
9.109569 16.694290 -144.586502 -0.131431 -0.711764 0.690013 
8.190911 16.849070 -144.591293 -0.138234 -0.710980 0.689492 
8.276781 17.512440 -143.918304 -0.134018 -0.702517 0.698935 
9.176320 17.348591 -143.911407 -0.128015 -0.700257 0.702320 
7.303506 17.008190 -144.607605 -0.142087 -0.712301 0.687342 
6.424371 17.164360 -144.639893 -0.142603 -0.714455 0.684996 
6.514038 17.827780 -143.999405 -0.137844 -0.707936 0.692695 
7.393365 17.671230 -143.946899 -0.136905 -0.704721 0.696150 
5.556974 17.345591 -144.729095 -0.143946 -0.717829 0.681177 
4.703187 17.510960 -144.828705 -0.146050 -0.722684 0.675572 
4.825793 18.158661 -144.209595 -0.137680 -0.714718 0.685728 
5.656014 18.004061 -144.100098 -0.137512 -0.711306 0.689300 
3.865643 17.580299 -144.876602 -0.149000 -0.727913 0.669285 
2.999002 17.642330 -144.911896 -0.153735 -0.731192 0.664624 
3.123290 18.294531 -144.233994 -0.144639 -0.722199 0.676394 
3.983755 18.237160 -144.223694 -0.140144 -0.718937 0.680801 
2.135935 17.734831 -144.996796 -0.159939 -0.735597 0.658268 
1.285855 17.817940 -145.096298 -0.164249 -0.741291 0.650777 
1.389906 18.427719 -144.340103 -0.154629 -0.734393 0.660876 
2.253312 18.350161 -144.264404 -0.149534 -0.727404 0.669718 
0.448238 17.885920 -145.210403 -0.170769 -0.748111 0.641224 
-0.372112 17.931910 -145.347504 -0.179541 -0.752645 0.633475 
-0.322230 18.628700 -144.591095 -0.167552 -0.744978 0.645705 
0.534879 18.510880 -144.443207 -0.158373 -0.739194 0.654607 
-1.318518 18.102989 -145.470001 -0.189244 -0.757398 0.624929 
-2.235813 18.247129 -145.619003 -0.200430 -0.760204 0.617995 
-2.141534 18.870081 -144.866806 -0.194163 -0.752241 0.629631 
-1.226411 18.760880 -144.730194 -0.180205 -0.749093 0.637484 
-3.163608 18.372391 -145.779800 -0.212411 -0.762050 0.611687 
-4.110784 18.485479 -145.942398 -0.219772 -0.763893 0.606768 
-4.022910 19.055771 -145.175598 -0.213896 -0.757761 0.616480 
-3.075708 18.955070 -145.005997 -0.205732 -0.754635 0.623057 
-5.018594 18.598850 -146.093597 -0.226233 -0.766211 0.601448 
-5.880841 18.757299 -146.285294 -0.231317 -0.769935 0.594721 
-5.819126 19.312481 -145.509003 -0.225205 -0.763486 0.605287 
-4.942697 19.167919 -145.325394 -0.219000 -0.759883 0.612059 
-6.722826 18.909370 -146.476105 -0.236255 -0.773126 0.588608 
-7.494435 19.037670 -146.635803 -0.236330 -0.773244 0.588423 
-7.570781 19.631651 -145.923492 -0.231045 -0.767352 0.598155 
-6.680634 19.480350 -145.721298 -0.228930 -0.766246 0.600382 
127.519501 3.954208 -171.216095 0.354679 -0.819271 0.450553 
128.356705 3.991344 -171.562698 0.350495 -0.817444 0.457098 
126.703400 3.859043 -170.828903 0.365605 -0.819032 0.442176 
126.855499 4.280976 -170.069199 0.371385 -0.815726 0.443469 
127.688797 4.371719 -170.462799 0.362394 -0.816045 0.450268 
128.630096 4.417916 -170.848694 0.357636 -0.815434 0.455153 
125.939201 3.675844 -170.397293 0.374033 -0.818169 0.436692 
125.186501 3.488945 -169.965805 0.381198 -0.818455 0.429906 
125.294800 3.947822 -169.187897 0.383820 -0.812784 0.438252 
126.075104 4.109792 -169.634506 0.376164 -0.813547 0.443442 
124.473000 3.319356 -169.576202 0.391974 -0.815213 0.426361 
123.777000 3.159493 -169.212601 0.398010 -0.811393 0.428053 
123.938202 3.623024 -168.494507 0.395427 -0.805385 0.441581 
124.620102 3.787598 -168.840302 0.391524 -0.809381 0.437734 
123.091698 2.993988 -168.875000 0.395956 -0.808504 0.435363 
122.391197 2.808314 -168.563095 0.389567 -0.808690 0.440747 
122.549698 3.290375 -167.850006 0.386987 -0.801368 0.456126 
123.251602 3.459292 -168.158401 0.393873 -0.802404 0.448344 
121.675903 2.635188 -168.253998 0.379662 -0.808506 0.449638 
120.961098 2.468537 -167.947205 0.369839 -0.808598 0.457590 
121.102501 2.965827 -167.224594 0.369644 -0.800093 0.472455 
121.827698 3.122911 -167.539993 0.378137 -0.800545 0.464910 
120.241203 2.319047 -167.641907 0.360889 -0.808998 0.463984 
119.490303 2.180857 -167.339493 0.350752 -0.810691 0.468778 
119.626404 2.680599 -166.613907 0.351737 -0.800206 0.485748 
120.375000 2.819330 -166.915405 0.361276 -0.800193 0.478719 
118.743301 2.039242 -167.045593 0.339807 -0.811844 0.474805 
117.978996 1.875220 -166.776398 0.331914 -0.812744 0.478833 
